ply
format ascii 1.0
comment PCL generated
element vertex 1301
property float x
property float y
property float z
element camera 0
property float view_px
property float view_py
property float view_pz
property float x_axisx
property float x_axisy
property float x_axisz
property float y_axisx
property float y_axisy
property float y_axisz
property float z_axisx
property float z_axisy
property float z_axisz
property float focal
property float scalex
property float scaley
property float centerx
property float centery
property int viewportx
property int viewporty
property float k1
property float k2
end_header
-0.062346112 0.15215084 -0.02431559
-0.077728279 0.15923317 -0.023086468
-0.074526623 0.15639214 -0.025297994
-0.061722983 0.15765409 -0.024585057
-0.077895731 0.16343042 -0.025196837
-0.074815631 0.16691524 -0.023504289
-0.065856948 0.16521139 -0.024155403
-0.062575787 0.16182584 -0.025922151
-0.0148803 0.167556 -0.0211496
-0.011040357 0.16696559 -0.021980399
-0.072417885 0.16900064 -0.025810376
-0.06913048 0.16873498 -0.026441531
-0.021526933 0.17368032 -0.021406665
-0.01682644 0.17175266 -0.022983523
-0.010294809 0.17148475 -0.024679849
-0.021617427 0.17754786 -0.0217267
-0.017025946 0.17887416 -0.024704404
-0.011369142 0.17841819 -0.024853213
-0.021112399 0.182965 -0.0210132
-0.016579419 0.18487805 -0.023638224
-0.012943667 0.18340242 -0.025737783
-0.044963438 0.033778407 -0.017373374
-0.038937788 0.033933632 -0.017761612
-0.031893346 0.03435152 -0.020383155
-0.024407415 0.034430727 -0.020461041
-0.017052824 0.034180913 -0.019999677
-0.010559155 0.034205366 -0.019263294
-0.0035833935 0.034203388 -0.018830895
0.003591479 0.034236658 -0.018056467
0.010285577 0.034337111 -0.017277129
0.015248966 0.034711167 -0.016246701
-0.046147671 0.038190462 -0.017326135
-0.036158822 0.03615525 -0.015397225
-0.031173851 0.037149657 -0.017381405
-0.024476947 0.037592024 -0.017403407
-0.017595848 0.037322376 -0.01703251
-0.010523782 0.037162095 -0.016363116
-0.0034772074 0.036993645 -0.015424917
0.0028178913 0.03628682 -0.01470699
0.017964544 0.038278271 -0.017668249
0.02118925 0.04156065 -0.01519995
-0.043392904 0.043664418 -0.016917836
-0.038603179 0.047165737 -0.017258935
-0.0339517 0.048379 -0.019334532
0.020387951 0.044048849 -0.020493949
0.023601139 0.045977067 -0.017594043
-0.030757321 0.052413363 -0.017366504
0.026930397 0.05212301 -0.019974273
0.02949778 0.052745298 -0.01653452
-0.031371336 0.05950737 -0.017416608
0.027207768 0.056921568 -0.020433901
0.031075325 0.059856355 -0.017522469
-0.058192275 0.069384448 -0.014425375
-0.05270005 0.069349989 -0.014232857
-0.045318276 0.067609817 -0.015302571
-0.038701873 0.067360707 -0.015397717
-0.033185642 0.066314183 -0.018080091
0.0278363 0.064653099 -0.0209201
0.031929884 0.066635787 -0.018171471
0.035698898 0.067801073 -0.014807899
-0.070666999 0.076393701 -0.014042
-0.065981694 0.075025462 -0.015917452
-0.059641037 0.073867291 -0.017095601
-0.052732181 0.073846184 -0.017144037
-0.045724459 0.073883213 -0.017471671
-0.038632438 0.073987767 -0.018144978
-0.034451772 0.072668381 -0.019978914
0.032522071 0.073951542 -0.018359642
0.03536088 0.07411436 -0.01479176
-0.072210334 0.081451461 -0.015345396
-0.066768393 0.08089193 -0.017703243
-0.060206488 0.080771104 -0.019544376
-0.052558422 0.079150774 -0.02003938
-0.045521442 0.080198362 -0.019928683
-0.039410058 0.079901859 -0.019934805
0.031951223 0.080589108 -0.019397186
0.03636346 0.080908857 -0.0158196
-0.072972246 0.087720364 -0.015588991
-0.066959515 0.087887406 -0.017916387
-0.060805075 0.087496579 -0.019756256
0.031915322 0.087337837 -0.019226607
0.036575969 0.087065898 -0.016007332
-0.072576329 0.094572634 -0.015080914
-0.066673189 0.094291493 -0.017315425
-0.060575273 0.094185486 -0.019367719
0.02648001 0.095648386 -0.020246292
0.031179491 0.094315432 -0.017356118
0.035525352 0.092356279 -0.014737525
-0.071098551 0.099408679 -0.014619876
-0.06677606 0.10088006 -0.016039278
-0.059879221 0.10115851 -0.018704861
-0.053719178 0.10264958 -0.020133218
-0.045870446 0.10422456 -0.0207639
-0.039046925 0.10371373 -0.020633884
-0.034871999 0.104274 -0.0209307
0.010412253 0.10381607 -0.020469332
0.018554328 0.10384454 -0.01969704
0.024766687 0.10158639 -0.018534297
0.030154636 0.10124458 -0.015379374
-0.065182351 0.10658944 -0.014852108
-0.059899431 0.10828681 -0.016866678
-0.052874263 0.10841493 -0.018523019
-0.045616191 0.10847069 -0.018965743
-0.038657207 0.10868554 -0.019430129
-0.032049324 0.10890676 -0.019230692
-0.025005519 0.11030404 -0.019498086
-0.017292134 0.1100783 -0.020113021
-0.011361209 0.1106723 -0.02022803
-0.0029554181 0.11134657 -0.020413289
0.0032314642 0.10907157 -0.020348057
0.010570368 0.10852233 -0.019447649
0.01738631 0.10816433 -0.017282043
0.023940513 0.10736536 -0.015365438
0.0285239 0.105924 -0.0141978
-0.058686521 0.11363973 -0.014996702
-0.052461118 0.11480795 -0.015786277
-0.045476042 0.11508882 -0.015810627
-0.038687713 0.11505432 -0.015800182
-0.031386655 0.11444187 -0.016123878
-0.024428135 0.11429661 -0.016198976
-0.01725675 0.11495724 -0.016871855
-0.010445083 0.11522435 -0.01687807
-0.0038217639 0.11549188 -0.017153982
0.0033483764 0.11601783 -0.01787499
0.010290999 0.11532551 -0.016933003
0.01675646 0.11415011 -0.015254841
-0.045070201 0.11916925 -0.0140414
-0.0090855155 0.11913274 -0.014243299
-0.0030678553 0.119099 -0.01424388
0.0037933199 0.11944167 -0.014664885
0.0095861433 0.1193746 -0.014632019
-0.071885876 0.14500822 -0.016763452
-0.066285342 0.14519183 -0.017267857
-0.075035088 0.14995889 -0.017876899
-0.063386112 0.14810136 -0.018972388
-0.062370125 0.15117197 -0.01729745
-0.077634282 0.1582067 -0.017330574
-0.075842634 0.15524039 -0.018352494
-0.063923717 0.15937576 -0.016492957
-0.062244046 0.15697889 -0.018387401
-0.02909915 0.16077399 -0.014093351
-0.077474803 0.16162366 -0.0193948
-0.073649578 0.16466497 -0.017862489
-0.067155391 0.16360529 -0.017729593
-0.035628233 0.1652015 -0.014489233
-0.03112337 0.16448514 -0.015491886
-0.024327654 0.16406499 -0.016208231
-0.017543286 0.1642413 -0.017020602
-0.011626326 0.16507345 -0.017256264
-0.035398673 0.16929075 -0.014397849
-0.031212484 0.17127159 -0.016284771
-0.024173995 0.17120814 -0.018962448
-0.017459495 0.17129289 -0.016814487
-0.011596481 0.17035757 -0.018926162
-0.029490275 0.17711338 -0.015608615
-0.024391379 0.17872889 -0.017812317
-0.017749228 0.17869852 -0.017902287
-0.013525899 0.175696 -0.020605952
-0.022850255 0.18420596 -0.016880834
-0.018154116 0.18538186 -0.0182254
-0.064097926 0.033860724 -0.0078134025
-0.05958407 0.03374289 -0.0091820378
-0.052377351 0.033701174 -0.010273282
-0.045378465 0.033629067 -0.01050798
-0.04105467 0.034107599 -0.010950484
0.011398925 0.034507878 -0.010710191
0.015909437 0.034695055 -0.010758631
-0.064335398 0.036890704 -0.0076667503
-0.059131827 0.038585268 -0.0090454593
-0.052307092 0.038843945 -0.011195655
-0.047746234 0.038901579 -0.01231768
-0.037359115 0.037321288 -0.010573335
-0.031390827 0.038502071 -0.010538476
-0.024320556 0.038560554 -0.010540227
-0.017758118 0.038740575 -0.010382161
-0.010426712 0.03893562 -0.0104597
-0.0033504271 0.039080754 -0.01082347
0.0038065389 0.038389176 -0.010899719
0.0082437098 0.036465965 -0.010659508
0.019265158 0.037111498 -0.010922549
0.021926833 0.040911749 -0.0099579627
-0.058433905 0.042620998 -0.0074074599
-0.052031811 0.045234021 -0.008642979
-0.04578745 0.045589078 -0.011062844
-0.03940472 0.048141655 -0.01284689
0.025489941 0.044697866 -0.010638064
0.028903436 0.047533318 -0.0098364996
-0.051019225 0.053034537 -0.008097996
-0.045453653 0.052108351 -0.010353825
-0.038626213 0.052020982 -0.011043851
-0.03307778 0.052588027 -0.011619178
0.031906761 0.052187234 -0.010711541
0.035640519 0.055126559 -0.0081543298
-0.051812131 0.059330802 -0.0092810979
-0.045647576 0.0592218 -0.012013271
-0.03865945 0.059228364 -0.011845665
-0.03339681 0.058660489 -0.012255435
0.034285117 0.058546502 -0.013165143
0.036949445 0.060008921 -0.010230488
-0.065086782 0.068140954 -0.0091206348
-0.059679061 0.066732951 -0.010101547
-0.052540973 0.065610662 -0.011210175
-0.046494361 0.064244479 -0.013445335
-0.038680401 0.063665353 -0.013693114
-0.034678798 0.0636729 -0.0139354
0.038662732 0.066127218 -0.010623229
-0.073426172 0.074277975 -0.0095477942
-0.067535885 0.071799368 -0.011787916
-0.062699899 0.070679799 -0.0138683
0.038855933 0.073116928 -0.010875775
-0.078297235 0.080909908 -0.0088829976
-0.075023934 0.079834335 -0.011686845
0.039635085 0.080187373 -0.010680415
-0.079202011 0.087810367 -0.0098641468
-0.0761379 0.088035069 -0.013558112
0.040031243 0.087413482 -0.01142891
0.042141758 0.087321185 -0.0077935159
-0.079404779 0.094691388 -0.0098255649
-0.075661361 0.095596142 -0.013215893
0.0341371 0.096748129 -0.013424425
0.038339399 0.093864441 -0.010349778
-0.078599021 0.10146102 -0.0086021358
-0.074423432 0.10196945 -0.011750041
-0.069893204 0.103728 -0.0136756
0.033331666 0.1025553 -0.012595493
0.036797527 0.10103649 -0.0094633652
-0.077619568 0.10638934 -0.0075233863
-0.073489361 0.10819336 -0.0096713519
-0.067696624 0.10875541 -0.012641322
0.025820123 0.11020032 -0.012776293
0.031467561 0.10826181 -0.01032041
0.035729699 0.1056115 -0.0079797246
-0.072360069 0.11526074 -0.0079724751
-0.066730976 0.11510164 -0.010222534
-0.060325187 0.11663969 -0.012108017
-0.053338479 0.11827525 -0.013521351
-0.0425153 0.118993 -0.0138741
-0.037810229 0.1181445 -0.01317248
-0.031436704 0.11787976 -0.012711428
-0.024809064 0.11780559 -0.013083707
-0.018367946 0.11840327 -0.012999191
-0.0129236 0.118879 -0.0139348
0.013479 0.118711 -0.0139326
0.018585892 0.11718689 -0.012455978
0.024377435 0.11512183 -0.010162196
0.029700628 0.113014 -0.0080850525
-0.073805511 0.12240656 -0.0080202091
-0.066913486 0.12237632 -0.0088652438
-0.059747647 0.12245403 -0.0087595219
-0.052775409 0.12213871 -0.010040174
-0.045647487 0.12279499 -0.010827866
-0.038609061 0.12230867 -0.010060577
-0.031798627 0.12076273 -0.0090641631
-0.02430724 0.12072803 -0.009436124
-0.017405458 0.12094142 -0.009777586
-0.010247637 0.12250014 -0.010259442
-0.0031873947 0.1228108 -0.010605826
0.0036294716 0.12312923 -0.010621036
0.010269273 0.12269197 -0.010603255
0.016844239 0.12100037 -0.0094064903
0.021969767 0.11962733 -0.007585803
-0.077891298 0.126656 -0.0070207301
-0.073757969 0.12951322 -0.0081201876
-0.066848256 0.12976739 -0.0087213898
-0.061043847 0.12919882 -0.0077881035
-0.045155771 0.12605201 -0.0072462452
-0.0053997035 0.12606634 -0.0076982938
-0.072278112 0.13623533 -0.0075582778
-0.066547491 0.13689283 -0.0079008443
-0.061771199 0.13513975 -0.0071784724
-0.072797783 0.14380464 -0.010357896
-0.065706961 0.14284813 -0.010081388
-0.062778965 0.14564738 -0.009539647
-0.075942792 0.14999443 -0.010878486
-0.063174777 0.15275019 -0.0088670161
-0.062510952 0.15010601 -0.010955269
-0.042541653 0.1532715 -0.0074722348
-0.038927119 0.15315041 -0.0076501383
-0.0344427 0.15352 -0.00733684
-0.077211782 0.15632945 -0.012276218
-0.075554766 0.15799016 -0.0096793417
-0.065773711 0.15772915 -0.010220963
-0.062767103 0.15528999 -0.013592
-0.044522852 0.15775742 -0.0086948574
-0.037958443 0.15743798 -0.010794528
-0.031467017 0.15738855 -0.010985635
-0.024806116 0.15832955 -0.010761264
-0.01794037 0.15978737 -0.010445191
-0.07227698 0.16225868 -0.011907508
-0.068495452 0.16172445 -0.012120355
-0.044209044 0.16445588 -0.0091243153
-0.038950056 0.16435175 -0.012537165
-0.02882505 0.16680351 -0.0076215751
-0.024037926 0.16543403 -0.0092163961
-0.017027838 0.16395299 -0.010551811
-0.013130717 0.16369835 -0.012828651
-0.042857137 0.16932134 -0.0085601397
-0.038354959 0.17130482 -0.011304749
-0.029748611 0.17117022 -0.0086998073
-0.024770766 0.17120264 -0.011407281
-0.019546639 0.1686008 -0.01336546
-0.036584318 0.17567499 -0.0089766057
-0.03147278 0.17840517 -0.010476172
-0.024957091 0.17920965 -0.010626935
-0.023490708 0.1836915 -0.011944471
-0.020599 0.184532 -0.0139517
-0.070826843 0.03444016 -0.0011069608
-0.066581763 0.033675987 -0.0035888706
-0.059471726 0.033409588 -0.0034664574
-0.05253116 0.033476628 -0.0033021492
-0.045623668 0.033644035 -0.0034829543
-0.041321345 0.03401462 -0.0027700677
0.0058167474 0.034605399 -0.00094662432
0.010980236 0.034342077 -0.0033449864
0.017047919 0.034632921 -0.0033750103
0.0214264 0.0348625 -0.00133145
-0.070679262 0.037608303 -0.00058361527
-0.067067772 0.039411917 -0.0044732578
-0.062161669 0.041657764 -0.0066724704
-0.036091283 0.038309585 -0.0054904618
-0.031646818 0.038358115 -0.0032181076
-0.024502549 0.038357478 -0.0035037138
-0.017245425 0.038539227 -0.0036706419
-0.010834372 0.038731076 -0.0033038135
-0.0035772163 0.03897031 -0.0036613834
0.0030759803 0.038191427 -0.0036575734
0.0075719766 0.0357964 -0.0055775964
0.020132229 0.036346816 -0.0053904513
0.02423561 0.039018985 -0.0040510064
0.031527232 0.039784182 -0.0022812232
0.036993857 0.040571086 -0.0014854159
-0.06509196 0.04354858 -0.00188749
-0.059598599 0.045308139 -0.003702262
-0.054532923 0.047199078 -0.0061397632
0.02689785 0.043569602 -0.0062386175
0.031747654 0.045148697 -0.0057926052
0.038535632 0.045075171 -0.0043275114
0.045494482 0.04695357 -0.0028045911
0.0499878 0.048871152 -0.0011728525
-0.056658946 0.051531024 -0.00130349
-0.054360244 0.052286092 -0.0049245981
0.033702116 0.050061967 -0.006673574
0.03855361 0.051827982 -0.0065580434
0.045250677 0.052210882 -0.0057083042
0.051377136 0.052987061 -0.0025827696
-0.065048017 0.062327567 -0.0018664044
-0.058508284 0.06044656 -0.0027066933
-0.055240747 0.058226705 -0.0050024004
0.039750066 0.058955222 -0.0052462034
0.045432754 0.059282888 -0.0045280755
0.052424345 0.05946606 -0.0028323717
-0.072008051 0.068320535 -0.0024574543
-0.067485541 0.065816231 -0.0043116091
-0.061656464 0.064397335 -0.0065313368
0.041106641 0.065830052 -0.0054790289
0.044491529 0.066086754 -0.0016593114
0.051615555 0.064861067 -0.0010966168
-0.079005286 0.074387982 -0.0028629473
-0.074830472 0.071467869 -0.0047130617
0.0418097 0.073248923 -0.0067735659
0.043223526 0.07337524 -0.0032946921
-0.084366903 0.083106451 -0.00099999947
-0.081417218 0.079966903 -0.00368705
0.041765735 0.078867696 -0.0067769201
0.043487918 0.080543138 -0.0035058861
-0.085073359 0.087454036 -0.002090018
-0.08269836 0.086628534 -0.0055033606
0.04362388 0.08743766 -0.0038022434
-0.08508864 0.093942754 -0.0024002052
-0.082930841 0.095081687 -0.0056406492
0.041009374 0.095458277 -0.0055230209
0.042839807 0.093618765 -0.002757787
-0.084570028 0.10026455 -0.0015070806
-0.082188226 0.10248746 -0.0043984368
0.039579183 0.10171297 -0.0037883415
0.042245202 0.098635703 -0.00081787101
-0.080218069 0.10854576 -0.0032863137
-0.076199628 0.11077899 -0.0063139796
0.034080692 0.11072966 -0.0047413115
0.03644165 0.10766339 -0.0032519004
-0.085008703 0.1171605 -0.0008588772
-0.08050473 0.11528419 -0.0031547097
-0.075718254 0.11475299 -0.0059406538
0.026810009 0.11752699 -0.0053501902
0.031154234 0.11517933 -0.0030478612
-0.086173959 0.12239075 -0.0019689379
-0.080884881 0.12216762 -0.0050080507
-0.076876499 0.119334 -0.0068829302
-0.056422699 0.125779 -0.0068571898
-0.052855205 0.125522 -0.0065912846
-0.048965901 0.12587 -0.0069972798
-0.037152119 0.12542072 -0.0050912807
-0.031679068 0.12372826 -0.0037332156
-0.024378825 0.12363897 -0.0035995657
-0.017795734 0.12449432 -0.0042203367
-0.012654399 0.1252038 -0.0058282479
0.012470612 0.12520725 -0.0059397649
0.018079937 0.12395312 -0.0040661003
0.023921266 0.12116495 -0.0029322205
-0.085479274 0.12914921 -0.0018110175
-0.08085411 0.1294634 -0.0048977686
-0.076956406 0.1317835 -0.0066471547
-0.057554226 0.13051337 -0.006412826
-0.052274231 0.12940989 -0.0042612371
-0.045552071 0.12772903 -0.0031701725
-0.039241642 0.12689409 -0.0025283559
-0.034650601 0.126197 -0.000232823
-0.01513732 0.126589 -0.001225203
-0.010013234 0.12731388 -0.0030968813
-0.003503684 0.12791142 -0.0038784742
0.0034997331 0.12802136 -0.0037696117
0.010397979 0.12757409 -0.0031067671
0.015969088 0.12659875 -0.00119571
-0.084670097 0.133487 -0.000689201
-0.080698773 0.13658954 -0.0031684982
-0.075305879 0.13740128 -0.0064144381
-0.059008282 0.13715923 -0.0058153588
-0.053506576 0.13627821 -0.0022611604
-0.079623878 0.14281134 -0.0028309363
-0.075551048 0.14340806 -0.006134572
-0.063222803 0.141176 -0.0069872998
-0.059572868 0.14343035 -0.0039152619
-0.052975353 0.14393145 -0.0011928837
-0.046725012 0.14637458 -0.0011723208
-0.077910759 0.15023603 -0.0034108944
-0.076751113 0.148909 -0.0067105787
-0.06410864 0.15263474 -0.0033070277
-0.059982091 0.14958435 -0.0024987736
-0.052181307 0.15024391 -0.003048307
-0.04533745 0.15010577 -0.0044175405
-0.038564675 0.15060893 -0.003752718
-0.032760251 0.15306604 -0.0035775262
-0.074226864 0.15656595 -0.0038964825
-0.067469954 0.15611622 -0.0037037109
-0.056711148 0.15478475 -0.00081623299
-0.0522447 0.15746856 -0.0036865065
-0.047931302 0.15712884 -0.0068175183
-0.035175301 0.16092201 -0.000113952
-0.030015584 0.15510884 -0.0028814166
-0.025176683 0.15742977 -0.0033885923
-0.0201404 0.15918933 -0.0055741984
-0.051017113 0.16323517 -0.0029043418
-0.04777832 0.16543759 -0.0051531862
-0.036302991 0.1643592 -0.0012465081
-0.031703994 0.1640894 -0.0039710952
-0.024430797 0.16213317 -0.0046123299
-0.019266602 0.1613946 -0.0058898418
-0.044763751 0.16989492 -0.0035194552
-0.038546558 0.17271189 -0.0028441804
-0.032328777 0.17144932 -0.003876437
-0.03625856 0.1756558 -0.0050704977
-0.031137707 0.17712457 -0.0051100552
-0.02768635 0.177945 -0.0068518901
-0.071229093 0.03423899 0.0031971445
-0.066592753 0.03357622 0.0035897852
-0.059419058 0.033503819 0.0035479623
-0.052559197 0.033518676 0.0035994695
-0.045546889 0.033606444 0.0038328948
-0.038930696 0.033661906 0.0037881786
-0.0343653 0.033750102 0.0068747103
0.0040117446 0.034330904 0.0041568
0.0099225668 0.034264486 0.0021696696
0.018193951 0.034522224 0.0021876837
0.023524221 0.034677621 0.0041230666
-0.071593836 0.038306173 0.0031058674
-0.069730848 0.041784853 0.003597335
-0.029433055 0.038182184 0.0028821772
-0.024648262 0.038252488 0.0036455377
-0.017387571 0.038361568 0.0034299705
-0.010133866 0.038555749 0.0032779013
-0.0034296212 0.038378183 0.0037089863
0.0017628146 0.036361326 0.0029134655
0.010365945 0.035555419 0.0042188717
0.017265409 0.035648167 0.0044389819
0.026395552 0.036024678 0.0010903567
0.031581175 0.036663413 0.003106779
0.038964856 0.038994852 0.0037604312
0.043455783 0.041116819 0.0042676078
-0.066930853 0.044306446 0.0032431898
-0.060038388 0.047614012 0.0038833807
0.041730799 0.0422749 0.00024864299
0.046394665 0.043728258 0.0025832516
0.050950941 0.046488188 0.0038131913
-0.057210512 0.052152265 0.0036551591
0.054371562 0.051220927 0.0023166856
0.05688981 0.053660192 0.004722015
-0.070114203 0.062579699 0.0062174001
-0.066077009 0.061387498 0.0039425362
-0.058882594 0.058413707 0.0033937215
0.055740278 0.05850666 0.00041499821
0.058096938 0.059420928 0.0036364251
-0.073784627 0.066445202 0.0038035458
-0.06906794 0.063722625 0.00095975364
0.046353314 0.068279743 0.0014262104
0.053214092 0.067605533 0.0015434866
0.057875562 0.066190518 0.0039689182
-0.080533139 0.073436446 0.0038381952
-0.076350965 0.070268363 0.0015313599
0.045955781 0.073441416 0.0034005265
0.052407317 0.07101623 0.0048881075
0.0566222 0.07060428 0.0061256317
-0.084969133 0.080986269 0.0044990247
-0.083305217 0.079311095 0.0015900963
0.045590907 0.080581687 0.0031961289
-0.087292559 0.087347396 0.0034773995
0.045319218 0.087573707 0.0031847197
-0.087060004 0.094087712 0.0034312762
0.044374719 0.09454114 0.0031814105
-0.08629936 0.10150684 0.0034044827
0.041394785 0.10326581 0.0028623573
0.042782392 0.09993311 0.0034390371
-0.085180692 0.108763 0.0043898686
-0.083176248 0.10920555 0.0010673716
0.038409904 0.10834128 0.0032964502
-0.087948732 0.11596664 0.0034365328
-0.083435848 0.1128335 0.00074496848
0.032681637 0.11633186 0.0034446951
0.035658289 0.11266129 0.0038412246
-0.091015548 0.124722 0.0062760701
-0.089275025 0.12251855 0.003111535
-0.030575404 0.12528481 0.0027669398
-0.025510071 0.12528758 0.0027760144
-0.0202523 0.12591401 0.00084073498
0.02007555 0.12560001 0.0012266117
0.024417151 0.12325732 0.0034258822
0.029058263 0.11981372 0.0038078227
-0.088779002 0.12948114 0.0032691665
-0.049246199 0.13238201 0.000177088
-0.045491684 0.13006642 0.0032782031
-0.03843978 0.12792376 0.0035179015
-0.033390205 0.1265453 0.0044406308
-0.022428943 0.12635715 0.0046660029
-0.017391436 0.12741122 0.0036263249
-0.010536187 0.12908936 0.0033943437
-0.0033851727 0.13024984 0.0031058856
0.0036576577 0.13071929 0.0031107431
0.010455665 0.12994988 0.0032274087
0.017057961 0.12764043 0.0034412793
0.021116201 0.126093 0.0060537499
-0.086969517 0.13625039 0.0033306729
-0.0832173 0.13898 0.00031516299
-0.050223187 0.13710414 0.0023331072
-0.048497453 0.13463253 0.0047801691
-0.085098043 0.14253852 0.0048668603
-0.082778342 0.14376862 0.0017601636
-0.050249621 0.14206111 0.0031374595
-0.04639351 0.14549585 0.0031797497
-0.084738351 0.14947873 0.0058521954
-0.080981262 0.15089659 0.0027129115
-0.064161345 0.15336725 0.00064497459
-0.061121944 0.15307558 0.00072808843
-0.043157794 0.14921467 0.0048324047
-0.039032578 0.15180136 0.0032025941
-0.034354236 0.15315367 0.00044316953
-0.078072071 0.15428233 0.0057016262
-0.073293366 0.15544552 0.0034023451
-0.066695556 0.15502766 0.0037812025
-0.058953851 0.15700814 0.0035024157
-0.055031776 0.16027912 0.0047566113
-0.043754417 0.15863805 0.0058798608
-0.038676761 0.15793681 0.0036660288
-0.031980928 0.15764463 0.0016518222
-0.0276413 0.15959799 0.000270855
-0.05195209 0.16304493 0.0029194558
-0.045813788 0.16486269 0.0043494226
-0.039574459 0.16459036 0.0025214278
-0.04432692 0.16871899 0.0014264267
-0.038690206 0.16964903 0.0013838091
-0.071214274 0.034613177 0.0080273226
-0.066446617 0.034014832 0.01026067
-0.059345987 0.033626437 0.010514481
-0.05284645 0.033734348 0.010172157
-0.04581517 0.034716241 0.0075507606
-0.038071975 0.0340482 0.0092782704
-0.033024497 0.033811752 0.011261468
-2.4352201e-05 0.034877401 0.0110061
0.0026947747 0.034267519 0.010621377
0.025287505 0.034598865 0.0098636094
0.028780086 0.034817886 0.010462336
-0.071307883 0.037349582 0.0087046931
-0.068073072 0.038522895 0.011792186
-0.045557931 0.035796087 0.0084734531
-0.038405064 0.035640981 0.011123169
-0.024549196 0.038038924 0.010352802
-0.017603705 0.038247522 0.010747625
-0.01049429 0.038395859 0.010246114
-0.0032948614 0.037413944 0.01060761
0.020674899 0.035823353 0.0079132905
0.022666851 0.0355803 0.011309072
0.032331817 0.035506591 0.010503602
0.038841788 0.038019959 0.01056601
0.044617251 0.040869564 0.010418395
-0.065910935 0.043546889 0.0096683986
-0.059250258 0.046143454 0.010745586
-0.054445852 0.047890417 0.0125883
0.048381869 0.042942796 0.010786267
0.05248617 0.04625411 0.01021171
-0.056517452 0.050705668 0.0080625629
-0.053693611 0.053024821 0.011235583
0.055705599 0.049382601 0.0086976327
0.05785108 0.052717205 0.010374643
-0.070649892 0.062343124 0.010826671
-0.06661547 0.060381096 0.010769123
-0.059420153 0.058137793 0.010410245
-0.054968737 0.056303341 0.010297051
0.06025086 0.059524857 0.010160532
-0.077922985 0.069290735 0.010831728
-0.074228033 0.065719157 0.010371473
0.060089074 0.066628948 0.010151884
-0.081293836 0.07315398 0.010578018
0.047143929 0.074575633 0.010353158
0.052595653 0.072980441 0.010290233
0.057778042 0.071274094 0.010569643
-0.085861146 0.080566458 0.010503702
0.046303134 0.08064758 0.010179268
-0.088402852 0.087464727 0.010468804
0.045804773 0.087616004 0.010168958
-0.089102894 0.094239503 0.01043499
0.044860736 0.094583817 0.010162815
-0.088446088 0.10138463 0.010245239
0.041543644 0.10393989 0.010717366
0.042979538 0.10064765 0.0099705821
-0.087049529 0.1087444 0.010515722
0.038898513 0.10865231 0.010386182
-0.09220361 0.11672057 0.010739323
-0.090191633 0.11383 0.0091030365
0.033112187 0.11661689 0.010618478
0.035771687 0.11312434 0.010050923
-0.09277194 0.12274311 0.010279164
-0.029346952 0.12574115 0.01043157
-0.026757367 0.12586033 0.0098576061
0.024993621 0.12395737 0.01045419
0.029472243 0.12040192 0.010581444
-0.092108734 0.12935209 0.010497978
-0.090807401 0.13182567 0.00756968
-0.044574942 0.13072008 0.010410751
-0.038628161 0.12823406 0.010612757
-0.032856282 0.12677836 0.01057959
-0.023366606 0.12668194 0.010636006
-0.017463906 0.12824661 0.010482962
-0.010433557 0.12992182 0.010456043
-0.0033617704 0.13107078 0.010620383
0.0037140576 0.13159429 0.010387295
0.010672695 0.13076536 0.010425904
0.017471604 0.1282405 0.010404145
0.021465966 0.12629001 0.011399948
-0.091084696 0.13368101 0.012219868
-0.089241467 0.13666722 0.010023063
-0.049117699 0.138604 0.0074035898
-0.047871809 0.13585417 0.010485554
-0.087967582 0.14329396 0.010183834
-0.049676813 0.14291796 0.010742224
-0.048094682 0.1456562 0.0079789441
-0.087403402 0.15034202 0.010535369
-0.082536988 0.15339933 0.0087727718
-0.050737929 0.15108244 0.012271133
-0.046403136 0.15090634 0.0088204537
-0.079606302 0.15476735 0.010925841
-0.073304035 0.15581806 0.010486578
-0.066506892 0.15579645 0.010559713
-0.05944429 0.15603434 0.01067996
-0.052489176 0.15726136 0.0099778157
-0.046845183 0.15734735 0.0082521299
-0.049890298 0.161248 0.0070143202
-0.064497314 0.034442145 0.015648732
-0.059631545 0.03386382 0.017382208
-0.054640193 0.03352296 0.018200174
-0.035352033 0.034647498 0.018493898
-0.032597613 0.033994295 0.017123258
0.0038670732 0.034351867 0.017113551
0.0093900207 0.034649432 0.019478988
0.0202497 0.0347399 0.020698
0.024702033 0.034787647 0.017271493
0.028120199 0.034889501 0.0148787
-0.064892091 0.037544791 0.015932448
-0.060900901 0.039095916 0.018679138
-0.035769001 0.035459727 0.016779525
-0.0290267 0.036116835 0.019069834
-0.024241282 0.037948307 0.017252931
-0.017719518 0.038196389 0.017800204
-0.010553544 0.038331844 0.017507406
-0.0029890453 0.037718646 0.017435161
0.0010339599 0.035693023 0.019157257
0.019704167 0.03582773 0.018999467
0.024381997 0.035496209 0.017548518
0.031713448 0.036242671 0.017741026
0.038176324 0.038467392 0.017615313
0.04381451 0.040877208 0.016927991
-0.058417216 0.043028403 0.016300822
-0.052405059 0.046473801 0.017624838
0.047070548 0.042747285 0.017929945
0.051956292 0.046000145 0.017444735
-0.05067157 0.052801248 0.017418616
0.055513822 0.049312361 0.018200159
0.057866037 0.052824091 0.017017126
-0.070675097 0.062646963 0.016486021
-0.066498369 0.060918141 0.017656997
-0.059921928 0.058805931 0.017511303
-0.053573806 0.057090688 0.019774031
0.060006242 0.059504878 0.017175728
-0.078059502 0.069477662 0.016843187
-0.073899813 0.066065446 0.017795047
0.059839018 0.066672064 0.017730907
-0.080980636 0.07363268 0.017658874
0.046918646 0.073835269 0.01784849
0.052662242 0.073015533 0.017521087
0.057596523 0.071298018 0.016903099
-0.085651703 0.080490969 0.017370503
-0.083626375 0.077355325 0.01859325
0.045985069 0.080689549 0.017299568
-0.088259079 0.087487549 0.017460825
0.045340676 0.087587155 0.017166227
-0.089476787 0.094294801 0.017424446
0.044308435 0.094555914 0.017159963
-0.088809885 0.10102002 0.017383508
0.0412159 0.10307761 0.017496996
0.04272835 0.099769764 0.016808931
-0.087177627 0.10847602 0.01742094
0.038564347 0.10859795 0.017322075
-0.092780858 0.11606921 0.017184606
-0.090196125 0.112843 0.018434711
0.032964583 0.11649967 0.017517017
0.035778016 0.11290164 0.016954819
-0.094263382 0.12280754 0.017274287
-0.043122951 0.1256645 0.020319801
-0.038154233 0.125733 0.020609966
-0.03070326 0.12515011 0.018208785
-0.025518086 0.1251739 0.017955914
-0.0208042 0.125974 0.020960599
0.024923088 0.1238568 0.017618038
0.029400229 0.12021543 0.017537847
-0.09318909 0.12962016 0.017239193
-0.044628888 0.1298257 0.017519983
-0.038531758 0.12700787 0.017266132
-0.033428933 0.12645173 0.016280459
-0.022280002 0.12652028 0.016448544
-0.017368861 0.12800206 0.017271364
-0.010261171 0.12984613 0.017541269
-0.0034635486 0.13087516 0.01761581
0.0034929302 0.13137329 0.017471345
0.010630895 0.130567 0.017428482
0.017662305 0.12794541 0.017491428
0.021432728 0.12623376 0.016853649
-0.091392234 0.13441113 0.017337637
-0.090608165 0.13707483 0.017161101
-0.049664214 0.13807446 0.018388744
-0.047824323 0.13537483 0.016725708
-0.091531821 0.1432967 0.017943012
-0.090484507 0.1435044 0.014554475
-0.05135807 0.14317295 0.017388731
-0.091451727 0.14815034 0.017642533
-0.088352337 0.15177271 0.017254878
-0.052704293 0.15073474 0.017434958
-0.080518298 0.15505765 0.017450618
-0.073694028 0.1561656 0.017579805
-0.066578388 0.15624799 0.017490696
-0.059480291 0.15562092 0.017555324
-0.055212475 0.15439312 0.016931538
-0.063740082 0.034596283 0.025419321
-0.059569523 0.034122739 0.024356363
-0.053235602 0.033919293 0.02506591
-0.045799732 0.03382488 0.027163951
-0.037509218 0.034151249 0.026101433
-0.033116773 0.034301259 0.024092251
0.0057367627 0.034680527 0.0218812
0.010731574 0.034666535 0.024187636
0.017015764 0.034738317 0.02422468
0.022142624 0.034945901 0.022261824
-0.064436793 0.038183413 0.025948141
-0.06125294 0.040292501 0.023458676
-0.037078574 0.035315424 0.023383826
-0.029546058 0.037239872 0.02581667
-0.024603382 0.038069125 0.024271024
-0.017348496 0.038357366 0.024643505
-0.010349887 0.038498513 0.02469513
-0.0033870121 0.038649973 0.024283867
0.0033614463 0.037467502 0.024597133
0.0084769428 0.036060683 0.02690449
0.019958351 0.035114173 0.027107151
0.025073212 0.036319863 0.024470216
0.031482492 0.038691506 0.024720011
0.038061615 0.040440604 0.024199896
0.043041367 0.041632999 0.021564534
-0.059078474 0.04396743 0.025354318
-0.053787947 0.046871603 0.023767704
0.040607534 0.042890038 0.026925668
0.045969214 0.044827987 0.024917224
0.050867017 0.047334112 0.02330232
-0.052150525 0.052504484 0.024914637
0.053468585 0.051881626 0.025011322
0.057016771 0.054244287 0.022454539
-0.065115154 0.062184408 0.02302677
-0.059686374 0.061071139 0.024127504
-0.053333323 0.058654178 0.025036694
0.055051282 0.059197839 0.02703421
0.05777565 0.059641585 0.023420827
-0.073092647 0.067618065 0.023991115
-0.067619763 0.064549342 0.025393071
-0.062891603 0.063101597 0.026890101
0.044907868 0.067560345 0.026343878
0.053154822 0.067170709 0.026024107
0.057591978 0.066123195 0.023163905
-0.079262234 0.073925063 0.024293402
-0.076039873 0.070799589 0.026249075
0.044655275 0.073172487 0.024281859
0.052197207 0.071021304 0.022588542
0.056081399 0.070423402 0.0216351
-0.08457268 0.082459047 0.024060722
-0.082850307 0.079035573 0.024738273
0.044534385 0.080615826 0.024239171
-0.086494446 0.087553717 0.024510195
0.043985091 0.087487042 0.02442573
-0.087691471 0.094676957 0.024456009
0.04163963 0.095929705 0.02660807
0.043158717 0.093959957 0.023928072
-0.086410962 0.10177203 0.024274446
-0.083815545 0.1039365 0.027663201
0.040208071 0.10172188 0.024740733
0.042257801 0.098668732 0.022165233
-0.08524593 0.10929613 0.023804767
-0.083225347 0.10762509 0.026728958
0.034533974 0.11099774 0.027453601
0.037438091 0.1083117 0.024272259
-0.092409082 0.11719407 0.023824234
-0.088763595 0.11376302 0.024667161
0.031951737 0.11596956 0.024725107
0.035340365 0.11252733 0.022770934
-0.09393958 0.12283682 0.024284406
-0.044802029 0.1232155 0.025372
-0.038192872 0.12392076 0.024506111
-0.031626265 0.12249321 0.024452655
-0.024580453 0.1228748 0.024648389
-0.018567728 0.12480121 0.025661355
-0.0136948 0.125921 0.027876699
0.019086711 0.12515324 0.02561634
0.024467994 0.12266389 0.024563299
0.028647188 0.12004374 0.023287926
-0.092891045 0.12966654 0.024245543
-0.0492373 0.132883 0.026763501
-0.04690697 0.12953787 0.024496635
-0.016344294 0.12699209 0.023033051
-0.010426301 0.12836486 0.024504807
-0.0034565683 0.12955691 0.024561495
0.0035452859 0.12982915 0.02457552
0.010625842 0.12906648 0.024489846
0.016392883 0.12720366 0.023786834
-0.0911678 0.13375734 0.022218933
-0.089930117 0.13676374 0.024387205
-0.051034845 0.13666312 0.024899866
-0.048391834 0.13409249 0.022622967
-0.091321632 0.14438722 0.023366218
-0.090605929 0.14235015 0.025448004
-0.053239945 0.14316975 0.024407942
-0.09138152 0.14776298 0.022336319
-0.088285416 0.15041623 0.024524292
-0.082606964 0.15342052 0.025786499
-0.056716152 0.15386149 0.027111299
-0.054153826 0.15079108 0.024439989
-0.079653107 0.15469058 0.024163784
-0.0734476 0.15571889 0.024442051
-0.066505536 0.15590248 0.024606287
-0.059764445 0.15513024 0.024310188
-0.055671602 0.15425101 0.02166475
-0.064615145 0.034587987 0.031415615
-0.05951748 0.034310453 0.031457692
-0.052395936 0.034403171 0.031487029
-0.045216773 0.034411415 0.031418271
-0.03846477 0.034375049 0.031366713
-0.034397501 0.034760069 0.031693332
0.013091463 0.034837753 0.031381473
0.015855685 0.034850847 0.031274214
-0.065864645 0.038890615 0.031604089
-0.030526392 0.037649345 0.031589866
-0.024566822 0.038515471 0.031494968
-0.017526237 0.038721804 0.031738002
-0.010550911 0.03885768 0.031474881
-0.003751351 0.03901583 0.031348534
0.0034890079 0.039263837 0.031453114
0.0096532265 0.037051026 0.030811138
0.019159814 0.035283159 0.031922881
0.024815997 0.038720921 0.031434607
0.029679362 0.041231301 0.029473063
-0.064062104 0.043479044 0.032196674
-0.05982646 0.046444822 0.031629816
-0.055584252 0.047915101 0.029166199
0.027116101 0.042752698 0.03430105
0.031599976 0.04538051 0.03133212
0.03831917 0.045665376 0.030410269
0.044210691 0.04711768 0.029528694
-0.051554177 0.052403823 0.031723619
0.033286195 0.051166374 0.033380698
0.038350776 0.052734766 0.032007016
0.045615803 0.052449238 0.031487558
0.05056075 0.053809267 0.029138768
-0.057478201 0.062539004 0.028793467
-0.051651284 0.060327347 0.031436704
0.03880617 0.059268236 0.031888936
0.04549937 0.059705988 0.030942567
0.051618412 0.059607126 0.029559493
-0.071326971 0.068891317 0.029680891
-0.066330187 0.06711363 0.031391203
-0.059841238 0.064931855 0.032007392
-0.053590443 0.064382218 0.033584177
0.040107373 0.066585839 0.031615689
0.046101801 0.064192042 0.028644491
0.051329125 0.064217329 0.02862739
-0.078044362 0.075713642 0.029744755
-0.073979713 0.072714314 0.031922493
-0.069291063 0.070672333 0.034199465
0.040107954 0.073931463 0.032482374
0.042361479 0.073775783 0.028650338
-0.080331467 0.080314443 0.031504463
-0.076239519 0.078064278 0.034245916
0.040493686 0.080569118 0.032430358
0.042411052 0.08053501 0.028816018
-0.084465042 0.088106178 0.028512141
-0.082075208 0.087092347 0.031942565
0.040224675 0.087497026 0.032220159
0.042419236 0.085646048 0.028711598
-0.084855773 0.094521619 0.028990567
-0.081748009 0.094268315 0.032637578
0.039592139 0.094389036 0.031166086
-0.084311225 0.10025368 0.0286224
-0.080740623 0.10173338 0.031866316
-0.076849848 0.1041995 0.034886651
0.033866592 0.1034166 0.033869341
0.037087131 0.10117383 0.031092189
-0.085472099 0.11153661 0.032307263
-0.08084555 0.10856883 0.031626835
0.0276406 0.111416 0.034872498
0.032101601 0.10904688 0.032065134
0.035773814 0.10696729 0.029024485
-0.091926947 0.11726087 0.031947903
-0.08867114 0.1137642 0.030930789
-0.051455695 0.11612725 0.033682372
-0.045686495 0.1160973 0.032623995
-0.038327195 0.11572681 0.032940436
-0.031424638 0.11607861 0.032602493
-0.025176933 0.11706056 0.033100054
-0.020521199 0.118181 0.034795798
0.020191399 0.117982 0.034647699
0.025185958 0.11636125 0.032365218
0.030075241 0.11419217 0.030409077
-0.092615657 0.12285279 0.031276379
-0.050567627 0.12261257 0.033160504
-0.047124416 0.12173519 0.02939981
-0.038233776 0.12029937 0.029463155
-0.032246727 0.11972409 0.029166749
-0.023882492 0.12046142 0.030105976
-0.017453277 0.12214462 0.031453785
-0.010602353 0.12419888 0.03210935
-0.003602575 0.12433769 0.033453219
0.0037824523 0.12414475 0.033494327
0.01089178 0.12377127 0.032919448
0.017443111 0.12210259 0.0316022
0.022970503 0.12067225 0.030258941
-0.091812134 0.12888667 0.03089612
-0.090468064 0.13196477 0.032225858
-0.051407032 0.13017911 0.032139648
-0.048501816 0.12804343 0.029362772
-0.0092610931 0.1265375 0.029100075
-0.0030125869 0.12710744 0.029873606
0.0034651165 0.12712812 0.029740321
0.010108368 0.12685059 0.029349992
-0.089578636 0.13653697 0.031201186
-0.058233708 0.13780673 0.033443499
-0.053735606 0.13609351 0.030540772
-0.089100547 0.14334072 0.031335454
-0.057856951 0.14372386 0.032560673
-0.054974575 0.14378573 0.029335719
-0.086354487 0.1490823 0.030615419
-0.080675945 0.15185264 0.031868912
-0.073552966 0.1530948 0.033261143
-0.0664744 0.15336671 0.033292759
-0.05871243 0.15168603 0.032150324
-0.055581655 0.14988044 0.028903676
-0.073076926 0.15449069 0.029740561
-0.066324145 0.15463565 0.029923929
-0.06079071 0.15438233 0.029122643
-0.064076759 0.034699727 0.037536625
-0.059460692 0.034464888 0.038527068
-0.05230701 0.034523845 0.038658489
-0.045526084 0.034594502 0.038486797
-0.038693637 0.034563638 0.038438894
-0.03305503 0.034518443 0.039729692
-0.0080959899 0.034743901 0.041960001
-0.0020583814 0.034760702 0.0410976
0.004074065 0.034712378 0.039587095
0.010581079 0.034683257 0.038598605
0.015327401 0.034859363 0.037462149
-0.065133534 0.038284346 0.038523808
-0.039979797 0.036970034 0.041816432
-0.028561201 0.038561549 0.036131851
-0.023727957 0.038975995 0.036994204
-0.017394319 0.039190754 0.037707113
-0.010663509 0.039068237 0.037189953
-0.0032880418 0.03851673 0.0367226
0.018859008 0.036627691 0.039521597
0.022736991 0.039367262 0.038072828
-0.063735299 0.04376911 0.036929987
-0.060103949 0.046051592 0.0388676
-0.052930392 0.047787961 0.039613381
-0.045220371 0.046709899 0.040613625
-0.038624238 0.045518775 0.040815391
-0.034203101 0.048266903 0.040687103
0.0200755 0.047182534 0.041657198
0.024480768 0.044808336 0.038862351
0.028653422 0.046868421 0.035885043
-0.051370464 0.049600463 0.036603536
-0.045907877 0.052417729 0.037962366
-0.038490221 0.051996768 0.039191797
-0.031554062 0.052403774 0.038173426
-0.025954116 0.053645127 0.039487995
0.020390701 0.049043801 0.041533101
0.025223341 0.051192146 0.0398903
0.030602058 0.052718166 0.037258875
-0.049090002 0.062800698 0.035284501
-0.04576597 0.059642959 0.038165931
-0.038496148 0.059130922 0.040306456
-0.031684294 0.059185665 0.037945393
-0.025855295 0.05904638 0.039460417
0.0277358 0.0570857 0.0417189
0.031968884 0.059015065 0.039414145
0.0360098 0.06038069 0.036335818
-0.063754626 0.069282025 0.035838053
-0.058938865 0.068430066 0.036727577
-0.052316122 0.067167036 0.036881059
-0.045698129 0.066648051 0.039678883
-0.038496953 0.066271581 0.04153927
-0.031499706 0.066081539 0.039366707
-0.026382243 0.065503724 0.040146701
0.032086961 0.066244446 0.040514242
0.036640465 0.066272669 0.036900833
-0.071633317 0.075299472 0.036640733
-0.066273518 0.073278226 0.037964664
-0.059790548 0.072826304 0.040122204
-0.052567217 0.072193176 0.040349741
-0.047101475 0.071644001 0.041138213
-0.037747733 0.072180234 0.041907541
-0.031456608 0.073271722 0.040823344
-0.027414499 0.071222425 0.041104674
0.032812655 0.07314226 0.04052455
0.036586251 0.073628739 0.037258584
-0.077929422 0.082568124 0.035846677
-0.073395908 0.080590315 0.038143538
-0.067571633 0.079103135 0.040889729
-0.062492799 0.077540897 0.041934501
-0.035510398 0.077539802 0.041900199
-0.032281417 0.079765148 0.041554529
0.03395316 0.081112526 0.040778231
0.037024077 0.080885828 0.03703893
-0.078468129 0.087525427 0.0365583
-0.073541768 0.087411813 0.040220931
-0.032492299 0.084561497 0.041914899
0.034179688 0.087602586 0.040742196
0.036724046 0.087521523 0.037380382
-0.078147791 0.093898855 0.036252197
-0.073790893 0.094244093 0.040039454
-0.068479367 0.097264372 0.04185833
-0.040497299 0.097271502 0.041989598
0.032804094 0.094666921 0.040118705
0.036334105 0.093788102 0.036697395
-0.077711113 0.099453501 0.035616614
-0.073561937 0.10126115 0.038033862
-0.06697844 0.10182459 0.040754013
-0.060041789 0.10379591 0.041463677
-0.05249656 0.10322265 0.041226529
-0.045661941 0.10313762 0.041416451
-0.038861856 0.10183308 0.04084276
-0.032115247 0.10354229 0.041280262
-0.02700185 0.1043445 0.041751549
0.025807505 0.10315496 0.040375583
0.031095969 0.10101334 0.037990555
0.0352473 0.098801851 0.035332598
-0.086190924 0.1112489 0.038577445
-0.0804796 0.10961177 0.038680647
-0.073367596 0.10803382 0.038213871
-0.0667601 0.10847118 0.038493164
-0.059504773 0.10839094 0.038706463
-0.05249824 0.10841855 0.038677547
-0.045494448 0.10844497 0.039018411
-0.038486704 0.10839176 0.037756909
-0.031506941 0.10841454 0.038474515
-0.024692975 0.10875938 0.040009808
-0.017895175 0.10994996 0.041070379
-0.012483134 0.11137799 0.041669697
0.0055722254 0.10897111 0.041602459
0.010226095 0.10937515 0.040354665
0.017843153 0.10912508 0.039882332
0.02437862 0.10846336 0.038175438
0.029155882 0.10744327 0.036267396
-0.09221705 0.11689367 0.038322382
-0.089661591 0.11335388 0.038771059
-0.064357497 0.1133339 0.03985028
-0.059479717 0.11543506 0.037868988
-0.053844765 0.1149486 0.035837531
-0.045499001 0.11255828 0.035725299
-0.039487921 0.11254101 0.035446204
-0.031011151 0.1125395 0.03549755
-0.024021337 0.11384361 0.036563639
-0.017415946 0.11538299 0.03788238
-0.010492364 0.11553315 0.039667934
-0.0036433579 0.11572518 0.040374923
0.0035775357 0.11561498 0.039999899
0.010232701 0.11536973 0.038265478
0.017478893 0.11528737 0.036686927
0.022806291 0.11340989 0.035705976
-0.09281753 0.12287989 0.038466137
-0.058487747 0.12262093 0.040550951
-0.054052215 0.12266473 0.037058115
-0.0154848 0.11959734 0.035757568
-0.010179576 0.12059537 0.036308914
-0.0033880917 0.12112767 0.036774773
0.0033012917 0.12071688 0.036494341
0.0099771973 0.12041859 0.035874601
0.0144954 0.119572 0.035238899
-0.091584414 0.12797739 0.037701182
-0.090277709 0.13110691 0.038922079
-0.063782059 0.1316766 0.041142702
-0.059362698 0.12990272 0.039066758
-0.054758165 0.12879454 0.036272585
-0.089203216 0.1365498 0.038322438
-0.06437479 0.13716005 0.039730158
-0.060908094 0.13586283 0.036440469
-0.086725198 0.14286622 0.038092598
-0.08201351 0.1453931 0.040535908
-0.065089941 0.14416309 0.039888024
-0.061079714 0.14411922 0.036643814
-0.084752597 0.14730801 0.035741434
-0.079956479 0.14871641 0.037892513
-0.07348875 0.14973192 0.038789529
-0.066817664 0.15005873 0.037881196
-0.061258249 0.14962767 0.036183573
-0.058401901 0.034641732 0.043310307
-0.052563407 0.034706406 0.043757405
-0.047303859 0.034825657 0.042945057
-0.0360181 0.03478707 0.043042529
-0.031055583 0.034821089 0.045083221
-0.024720388 0.034824941 0.045858521
-0.017418278 0.034773227 0.04639459
-0.010476775 0.034755267 0.045409814
-0.0039051576 0.034709439 0.044447798
0.0030728662 0.034740541 0.043369722
0.009662196 0.034799982 0.042698801
-0.063336872 0.036766332 0.042543869
-0.059661198 0.038051598 0.04512348
-0.052653637 0.038210019 0.046331536
-0.045347955 0.038248405 0.044313673
-0.037579678 0.037794843 0.044574033
-0.033841215 0.036885455 0.048180368
-0.0087575745 0.036843952 0.047850311
-0.0034163459 0.03827082 0.047642156
0.0032980323 0.038531192 0.045974031
0.010638153 0.038313463 0.044693999
0.016676139 0.038834039 0.043397304
-0.058794562 0.043679256 0.043756779
-0.052686211 0.044407394 0.044115357
-0.0456938 0.043514576 0.043054368
-0.036979549 0.043493997 0.043646879
-0.032002181 0.046124436 0.046038825
-0.02682065 0.048652701 0.048141725
-0.017121362 0.048437439 0.048144165
-0.01000336 0.046038337 0.048214391
-0.0037815277 0.044211831 0.047426116
0.0035030956 0.04427468 0.046594404
0.010594036 0.045614902 0.045920227
0.017543022 0.045155015 0.04335605
-0.0292734 0.049967024 0.043488976
-0.023569172 0.052005086 0.04462586
-0.018504344 0.052200757 0.047443513
0.012985943 0.050072517 0.047672573
0.017486997 0.052226201 0.04638885
0.022940841 0.053807762 0.043765899
-0.022465885 0.059572872 0.04436475
-0.020236963 0.059424225 0.04772843
0.018875549 0.058576513 0.048528515
0.024245245 0.059260983 0.045161914
0.0285501 0.060896479 0.042498328
-0.023534238 0.066681772 0.045317437
-0.0205072 0.063885652 0.048470799
0.020150419 0.065076426 0.04822915
0.024562798 0.066501424 0.045228168
0.028811879 0.066321298 0.042558089
-0.058352385 0.075776801 0.04242463
-0.052079067 0.075614125 0.042725515
-0.044756096 0.074217223 0.042436317
-0.039130967 0.074319467 0.042330414
-0.028434733 0.075897865 0.043054432
-0.025785688 0.073409781 0.045697328
0.025071258 0.073556565 0.046565413
0.029684106 0.074778773 0.043326166
-0.065481193 0.081601188 0.043026164
-0.059401371 0.080559112 0.043526381
-0.052496143 0.080530785 0.044276282
-0.045497853 0.080433883 0.043084238
-0.03858811 0.080521598 0.043031983
-0.029726818 0.080913737 0.044314612
-0.027380208 0.079977959 0.047636252
0.026086954 0.080942914 0.047141857
0.030444169 0.080733582 0.043516248
-0.066747315 0.087637641 0.043778926
-0.059495308 0.087588191 0.044798542
-0.052495994 0.087616086 0.045182813
-0.045491662 0.087515019 0.043877754
-0.038494442 0.087472498 0.043282378
-0.031071624 0.087470092 0.044147003
-0.027220132 0.088522941 0.047568798
0.019268943 0.089965113 0.048479803
0.024933049 0.087836504 0.047217522
0.03042018 0.087578297 0.043226458
-0.070502698 0.093734354 0.0420474
-0.066329621 0.094150253 0.042912006
-0.059494209 0.09460713 0.044425759
-0.05249672 0.094588436 0.044103939
-0.045484778 0.094531231 0.043264925
-0.038429145 0.094431214 0.043092415
-0.031492919 0.094615862 0.044471283
-0.024916193 0.094801553 0.045622278
-0.018877815 0.09705127 0.047370698
0.011982676 0.097666226 0.048608176
0.017946379 0.095002741 0.047751699
0.024478545 0.094392762 0.046002075
0.029498503 0.093542375 0.043005977
-0.06416633 0.099638849 0.042189434
-0.059246007 0.10049355 0.042609002
-0.052495245 0.099923879 0.042821251
-0.045316692 0.099805601 0.042466693
-0.036296699 0.099278785 0.04246036
-0.031130714 0.10035534 0.043054193
-0.024210418 0.10128512 0.043765299
-0.017178429 0.1012909 0.044146031
-0.010401414 0.10169952 0.045083143
-0.0032258814 0.10182671 0.045252051
0.0033631511 0.10169552 0.045479164
0.010515779 0.1017487 0.046715356
0.017758666 0.10184485 0.045666847
0.023717556 0.10029282 0.043739721
-0.084772594 0.11163234 0.043162704
-0.080243774 0.11080958 0.043942027
-0.073660187 0.11072174 0.044630844
-0.069056153 0.1114285 0.043465927
-0.022497734 0.105779 0.042312998
-0.016960572 0.10672633 0.042456765
-0.010298626 0.1083714 0.043027639
-0.0033832572 0.1085044 0.043308403
0.0022136676 0.10854618 0.042521115
0.011069638 0.1060541 0.0429602
0.01649045 0.1061015 0.042759772
-0.091602162 0.1178038 0.042618699
-0.087721035 0.11579405 0.045398623
-0.081032336 0.11459397 0.0474452
-0.07400386 0.11238212 0.048055734
-0.066058077 0.11487466 0.045795973
-0.062778927 0.11795933 0.043251965
-0.00099610549 0.112805 0.042117648
0.00049750699 0.112823 0.042060699
-0.091663718 0.12246847 0.043325201
-0.088085435 0.12295649 0.046959005
-0.063993402 0.12290977 0.047273893
-0.06190509 0.12276535 0.04347856
-0.087868445 0.12966058 0.045654215
-0.066056356 0.13001414 0.045934368
-0.062355895 0.12738834 0.042618569
-0.086230882 0.13613816 0.044667426
-0.08165089 0.1381228 0.047492228
-0.072055154 0.13802813 0.048252262
-0.067647666 0.13662489 0.045088809
-0.084616177 0.14099474 0.042838275
-0.079949662 0.14277506 0.044596352
-0.073410757 0.14332411 0.045278855
-0.068210319 0.143242 0.043445669
-0.072500452 0.14701051 0.04229185
-0.0297672 0.034898698 0.049449768
-0.0241626 0.034872111 0.049994338
-0.018112825 0.034857728 0.049852576
-0.031064557 0.038001884 0.051376365
-0.024526797 0.037827693 0.053546153
-0.017558271 0.038331702 0.052076589
-0.010943189 0.038130295 0.049948126
-0.03005526 0.043631129 0.050532196
-0.024261734 0.045199573 0.051946558
-0.017737525 0.045236632 0.051385038
-0.01090753 0.044532165 0.049810123
-0.0029454203 0.048355225 0.050068442
0.0036545941 0.048146196 0.050507106
0.0085731596 0.048573337 0.049731921
-0.015984708 0.054314226 0.050225649
-0.010594137 0.052598372 0.051412724
-0.0034970536 0.052678846 0.053509206
0.0034366429 0.052511241 0.05303704
0.010412051 0.052952565 0.05119871
0.0146633 0.054853499 0.049155299
-0.016984025 0.059844181 0.051256821
-0.011000927 0.05911877 0.053879716
-0.0036971974 0.058639634 0.054656513
0.003912888 0.058349948 0.054417126
0.0104787 0.058940928 0.052492596
0.015419501 0.059424408 0.049780067
-0.021640383 0.068682753 0.049914684
-0.017707024 0.066474572 0.052640773
-0.010825906 0.066269808 0.054997362
