ply
format ascii 1.0
comment PCL generated
element vertex 1180
property float x
property float y
property float z
element camera 1
property float view_px
property float view_py
property float view_pz
property float x_axisx
property float x_axisy
property float x_axisz
property float y_axisx
property float y_axisy
property float y_axisz
property float z_axisx
property float z_axisy
property float z_axisz
property float focal
property float scalex
property float scaley
property float centerx
property float centery
property int viewportx
property int viewporty
property float k1
property float k2
end_header
-0.065485738 0.15959561 -0.05644406
-0.065692917 0.16375388 -0.058285039
-0.062226351 0.16513702 -0.058682747
-0.066421941 0.17179866 -0.058664005
-0.061746571 0.17221834 -0.059945744
-0.067369662 0.17939146 -0.058359403
-0.062842764 0.17765318 -0.059344511
-0.067573011 0.15655205 -0.051431969
-0.063623823 0.1594878 -0.051197767
-0.068913631 0.16385955 -0.052371044
-0.062343705 0.16450049 -0.052196473
-0.07392294 0.1732356 -0.049707446
-0.068596244 0.17180635 -0.051694393
-0.062611245 0.17189179 -0.052788857
-0.074975684 0.17870246 -0.051467702
-0.068567194 0.17887661 -0.052643482
-0.063373804 0.176572 -0.055553202
-0.072345607 0.15029067 -0.041349199
-0.069466308 0.1509261 -0.042983528
-0.072163299 0.15293549 -0.041611373
-0.068686351 0.15556911 -0.044514593
-0.063246228 0.158604 -0.043531299
-0.073381603 0.16602869 -0.04229077
-0.071150169 0.1630314 -0.045256305
-0.062592991 0.16467415 -0.044106789
-0.076584861 0.17292006 -0.043709692
-0.067444846 0.17267026 -0.043733291
-0.063644901 0.16953114 -0.045730203
-0.074576087 0.17723885 -0.045934066
-0.070533179 0.17672966 -0.046816766
-0.017811138 0.054568212 -0.032772616
-0.012018755 0.053893842 -0.033297881
-0.0053991158 0.05446877 -0.032673523
-0.024672033 0.062889196 -0.032592665
-0.020010918 0.060190182 -0.034321368
-0.012199873 0.05992654 -0.035304464
-0.0041925414 0.059853025 -0.034058098
0.0023116255 0.060415205 -0.032823794
-0.026395051 0.06899108 -0.034038715
-0.020178165 0.067869321 -0.037219282
-0.012229742 0.067826949 -0.037160795
-0.0042270287 0.067706212 -0.035239298
0.0036439267 0.06775137 -0.033505429
0.0092552071 0.069887251 -0.03240275
-0.027792254 0.076300502 -0.035417598
-0.020286918 0.076368496 -0.038757991
-0.012272018 0.076364242 -0.038297534
-0.0042649279 0.076267734 -0.036705405
0.0037360422 0.076155223 -0.034775537
0.0092423223 0.076035857 -0.032997329
-0.027855342 0.083802529 -0.035292093
-0.020317124 0.084090039 -0.038539983
-0.012076821 0.084405288 -0.038490869
-0.0043046554 0.084048226 -0.037172485
0.0037062459 0.083865464 -0.03427916
0.0087601189 0.083884619 -0.032487709
-0.026095971 0.089814819 -0.03403265
-0.019991918 0.091253422 -0.035498727
-0.012155598 0.092118509 -0.035514284
-0.0041267229 0.091744058 -0.03476803
0.0034772237 0.090629414 -0.033203423
0.0088584702 0.088705398 -0.0320419
-0.0115776 0.0962625 -0.032007001
-0.073021047 0.15004852 -0.036036026
-0.068242863 0.14952995 -0.035870314
-0.063597403 0.15192699 -0.032448798
-0.072683878 0.1559819 -0.036026042
-0.067964248 0.15500329 -0.038842328
-0.062622115 0.1566333 -0.035860669
-0.075391784 0.16385663 -0.036392294
-0.064486466 0.16744886 -0.035112284
-0.062740006 0.16427255 -0.036241062
-0.076616086 0.17094792 -0.036536321
-0.068195321 0.17083722 -0.036106572
-0.042303246 0.035996582 -0.026325006
-0.036018316 0.035569131 -0.028513817
-0.028075352 0.035878289 -0.028472021
-0.020241736 0.036403485 -0.0274173
-0.012213683 0.036571104 -0.025845038
-0.0044776504 0.037197851 -0.025051776
0.0026607574 0.03779491 -0.024437042
-0.041034877 0.040894251 -0.025042376
-0.035603356 0.043427061 -0.027216991
-0.028095614 0.044391781 -0.027971756
-0.020304017 0.044028834 -0.02818173
-0.012115479 0.043587558 -0.027457288
-0.004113269 0.043552432 -0.026784454
0.003686582 0.044005074 -0.025620565
0.011774619 0.045694962 -0.025251193
0.0163901 0.047698099 -0.024051201
-0.026329637 0.052247114 -0.026199449
-0.02047772 0.051454112 -0.029955082
-0.012334362 0.04951793 -0.031011717
-0.0035881298 0.050677732 -0.030945193
0.0037145377 0.051917884 -0.030006105
0.011855283 0.05236588 -0.028542435
0.019153766 0.052876368 -0.02628007
-0.027482925 0.060031664 -0.027711159
-0.0229421 0.057072949 -0.031305201
0.005775562 0.059349149 -0.031102041
0.011823382 0.060261454 -0.02985899
0.020116266 0.060059313 -0.026949573
0.024383759 0.060466506 -0.024504701
-0.032229401 0.070815399 -0.024472199
-0.029865395 0.067820743 -0.028145526
0.012221335 0.067833744 -0.030959137
0.019786077 0.067921169 -0.028121367
0.024899038 0.070330717 -0.024889125
-0.033134762 0.076478221 -0.026995631
-0.031353999 0.074331932 -0.03016462
0.013249825 0.075880721 -0.030823868
0.019751221 0.075660624 -0.027697297
0.025292594 0.076373398 -0.024881175
-0.033249058 0.083724029 -0.026711928
-0.030888639 0.085607737 -0.02995491
0.012681558 0.084550969 -0.030678144
0.019937187 0.084100291 -0.027011428
0.024845939 0.082493261 -0.024627939
-0.034074381 0.090221085 -0.024340376
-0.028335068 0.092325561 -0.027244451
-0.021013193 0.095266566 -0.029704846
-0.0148841 0.095988698 -0.031739
-0.0012236777 0.095854066 -0.031516198
0.0051340563 0.094526283 -0.030705133
0.012161279 0.092404641 -0.028465999
0.018679872 0.090864934 -0.025503194
-0.025978332 0.097795852 -0.0242758
-0.01972072 0.097952738 -0.025593542
-0.011557937 0.098300226 -0.027582794
-0.0042781527 0.097963408 -0.028290924
0.0034635246 0.097475342 -0.026884994
0.010196603 0.096711174 -0.025203487
-0.073933065 0.14942962 -0.027893335
-0.067647174 0.14782102 -0.028205905
-0.063224629 0.15051386 -0.027072499
-0.074082457 0.15616542 -0.028413817
-0.061948266 0.15536037 -0.028220404
-0.077689938 0.16436006 -0.028166356
-0.065761589 0.16651399 -0.027445126
-0.062647857 0.16237344 -0.028197704
-0.074707292 0.16948855 -0.028907157
-0.069569506 0.16951928 -0.028512532
-0.016708974 0.174934 -0.02464205
-0.010810958 0.17312057 -0.026578749
-0.017274575 0.18008347 -0.025181415
-0.011838154 0.17997727 -0.027574873
-0.016938951 0.18508101 -0.024497051
-0.014374091 0.18499781 -0.025641112
-0.044620965 0.035727739 -0.019750493
-0.035827227 0.034434203 -0.019696834
-0.028032567 0.035800375 -0.019737234
-0.02001575 0.03559567 -0.019605061
-0.011896437 0.035106197 -0.019275561
-0.0040930626 0.034499023 -0.019566998
0.0040280162 0.03485126 -0.02017797
0.011626031 0.036179621 -0.02059868
0.017762028 0.038431436 -0.01839928
-0.042707726 0.043212909 -0.019484369
-0.037469521 0.046864513 -0.020322081
0.0066021965 0.041008182 -0.02377126
0.012116389 0.041248612 -0.023330647
0.019521698 0.044377703 -0.020805042
0.025971599 0.047572676 -0.017397676
-0.033864792 0.048602838 -0.018711589
-0.029824132 0.052268602 -0.0201925
0.021750884 0.050078657 -0.022847854
0.02697164 0.052280739 -0.019703625
-0.032447081 0.062893718 -0.017099468
-0.030430326 0.059750907 -0.02031857
0.027796455 0.059956446 -0.020858068
0.03252374 0.061466046 -0.01716036
-0.043113567 0.069867127 -0.016788732
-0.034451082 0.068880416 -0.018742805
-0.031433556 0.066237181 -0.02232861
0.028064799 0.067890123 -0.021644142
0.0333177 0.067594953 -0.017278044
-0.066628642 0.077834368 -0.01698382
-0.060078003 0.07622087 -0.018110465
-0.052426752 0.076392971 -0.018558316
-0.044164926 0.076175191 -0.018522676
-0.036323749 0.075816169 -0.020181812
0.029513067 0.07604 -0.021639057
0.033287682 0.076050237 -0.017776657
-0.068392895 0.084185325 -0.017526027
-0.060289234 0.083938435 -0.02004019
-0.052282434 0.08408086 -0.021479502
-0.04428073 0.084090993 -0.021156315
-0.037449747 0.08391203 -0.022221595
0.028460072 0.084073849 -0.02158111
0.034235761 0.084271058 -0.018132774
-0.067612655 0.091705173 -0.01725707
-0.060325414 0.091837846 -0.01985752
-0.052322339 0.092007637 -0.021908559
-0.044326175 0.09206488 -0.02225378
-0.037077472 0.092860647 -0.023432245
-0.031097498 0.095480174 -0.023825776
0.015850401 0.095971704 -0.023627801
0.021212464 0.093831137 -0.023004394
0.02810527 0.09195818 -0.020460732
0.033710267 0.090637103 -0.017406592
-0.065984063 0.099200852 -0.016743213
-0.060518891 0.099916637 -0.018696031
-0.052367806 0.099914268 -0.021363422
-0.04435055 0.099949479 -0.02157286
-0.036357451 0.10001872 -0.022092897
-0.028651625 0.10043364 -0.023326676
-0.020445772 0.10223901 -0.023648972
-0.012872075 0.10203516 -0.023690121
-0.0035302569 0.10163128 -0.023273518
0.0040810411 0.10122912 -0.022368934
0.012272068 0.10037543 -0.022329787
0.020037193 0.10029467 -0.021302834
0.027066158 0.099612854 -0.01809578
-0.059521239 0.10707787 -0.0174261
-0.052368652 0.107712 -0.018772611
-0.044074032 0.10787521 -0.019329427
-0.036101256 0.10796201 -0.019642148
-0.027759707 0.10797517 -0.020575514
-0.019974871 0.10765123 -0.021584442
-0.012038461 0.10789643 -0.021635575
-0.0042779581 0.10825649 -0.021872913
0.0035284546 0.10808907 -0.020606374
0.012021294 0.10764854 -0.019277712
0.019134805 0.10682377 -0.017377712
0.025386602 0.10478625 -0.016481074
-0.0569156 0.112617 -0.0162683
-0.052182164 0.11325571 -0.016637858
-0.044292454 0.11301886 -0.01657266
-0.036157954 0.11341912 -0.017034724
-0.027775655 0.11324937 -0.016883601
-0.019137753 0.1139022 -0.017746417
-0.012092707 0.11391779 -0.017668445
-0.0041626277 0.11443877 -0.018033467
0.0038644057 0.11545048 -0.01828666
0.011257359 0.11402389 -0.017330451
-0.074399985 0.14883786 -0.02010251
-0.067128956 0.14573045 -0.020097831
-0.062999122 0.14926687 -0.019746171
-0.076209001 0.1562065 -0.020413276
-0.062108155 0.15561813 -0.019925693
-0.076070391 0.16393493 -0.020503992
-0.067586713 0.16469163 -0.019816864
-0.063016027 0.16086338 -0.021535385
-0.032140099 0.16671 -0.016033599
-0.027190872 0.16590288 -0.016806161
-0.019643696 0.16520379 -0.01772503
-0.011964135 0.16569045 -0.019214792
-0.072489098 0.168081 -0.022851801
-0.070797101 0.168292 -0.023709999
-0.032147549 0.16893899 -0.01615135
-0.027503038 0.17179866 -0.018143069
-0.019355027 0.17224997 -0.020297207
-0.011968213 0.17133322 -0.020671068
-0.025978653 0.17895994 -0.017761482
-0.019731363 0.18025044 -0.01971657
-0.01404081 0.17977226 -0.021855421
-0.018958621 0.1857632 -0.019348852
-0.015431751 0.18546325 -0.022187624
-0.0641215 0.033625901 -0.0081084697
-0.05948488 0.036014426 -0.0094101606
-0.051613446 0.035750225 -0.011466697
-0.045507833 0.035215732 -0.012598559
-0.035863582 0.037403092 -0.012024661
-0.027891215 0.038575489 -0.011935581
-0.020081295 0.038701516 -0.012091999
-0.012101675 0.038803682 -0.012349012
-0.0038257423 0.03841573 -0.012755751
0.0041831136 0.03743447 -0.012436469
0.011468861 0.034754515 -0.011885706
0.018493071 0.036557745 -0.012320629
-0.057796326 0.040865138 -0.0086539984
-0.051509544 0.043049473 -0.0098326672
-0.044584934 0.044897955 -0.012420085
-0.038943801 0.047743998 -0.0146455
0.021865763 0.041836355 -0.012467357
0.026565468 0.045883268 -0.011755413
-0.049600966 0.051780455 -0.0088388138
-0.044054672 0.051879492 -0.010645994
-0.036169909 0.051389024 -0.011723793
-0.031250909 0.05312942 -0.014228161
0.030171899 0.051068235 -0.012950188
0.033505339 0.054261111 -0.010180091
-0.050847571 0.060057342 -0.010191549
-0.044156294 0.059972163 -0.012348489
-0.03576434 0.059945855 -0.012519468
-0.031595871 0.057674002 -0.014727299
0.031392649 0.05682895 -0.0152865
0.035732545 0.060224865 -0.012097416
-0.06695772 0.070255585 -0.010431453
-0.05988257 0.068459205 -0.012234021
-0.052181393 0.067823276 -0.013005381
-0.044852864 0.066980921 -0.014951216
-0.037444912 0.066427447 -0.014933124
0.037304007 0.067675605 -0.012741809
0.040392432 0.070086867 -0.0091179842
-0.074545771 0.077305131 -0.01057536
-0.068903968 0.074965015 -0.013917259
-0.062703833 0.072240405 -0.015380333
-0.050221525 0.072325625 -0.0157087
-0.047695301 0.072362296 -0.0159721
0.037116054 0.076005362 -0.012935025
0.040325899 0.075935937 -0.008783536
-0.080187351 0.086145647 -0.0085498597
-0.076022565 0.084123343 -0.01267844
-0.071721397 0.080727503 -0.0154713
0.0385064 0.083579294 -0.013845074
0.040828161 0.084140688 -0.010110999
-0.080531366 0.091892324 -0.0087276259
-0.076428659 0.091773398 -0.012817518
-0.071490221 0.093436837 -0.015732748
0.031835198 0.095958099 -0.0155753
0.036935404 0.092344053 -0.01288721
0.040809598 0.090752535 -0.0094062584
-0.080265097 0.096356302 -0.0085413503
-0.076070428 0.099716216 -0.011344552
-0.069550276 0.10070258 -0.014830856
0.030691776 0.10141324 -0.014966543
0.035207115 0.099839874 -0.011601163
-0.074633718 0.10708836 -0.0094445739
-0.068405479 0.1080266 -0.012559195
-0.062643401 0.10976564 -0.015093664
0.021881467 0.10946753 -0.015041268
0.028246421 0.10840544 -0.012561887
0.033547111 0.10627486 -0.0099861491
-0.072893798 0.1157715 -0.0082370602
-0.068075858 0.11578936 -0.0095381187
-0.060271926 0.11616255 -0.012454614
-0.052239969 0.11720943 -0.014318538
-0.043911163 0.11729743 -0.01478911
-0.035909124 0.11733289 -0.013579801
-0.028155696 0.11744592 -0.013163773
-0.020251874 0.11781939 -0.013368992
-0.012134091 0.11818349 -0.014560932
-0.0043039951 0.11837956 -0.014683283
0.0040596817 0.11894666 -0.015204193
0.012752575 0.11778999 -0.014657381
0.019935599 0.11625131 -0.012209229
0.02625718 0.11392675 -0.0097306259
-0.073608056 0.1246746 -0.008290899
-0.068417862 0.12383584 -0.0088289315
-0.061032325 0.12318574 -0.0087524923
-0.051897395 0.12219858 -0.010277832
-0.044045229 0.12285027 -0.010791765
-0.036699187 0.12180752 -0.0098088905
-0.02801278 0.12084831 -0.00882072
-0.020019187 0.12112205 -0.0093980674
-0.011442847 0.12182381 -0.010524378
-0.0038683165 0.12272044 -0.010778285
0.0041953539 0.12269764 -0.011161973
0.011518729 0.12221533 -0.010832065
0.017168138 0.12110725 -0.0090197651
-0.073600866 0.12916316 -0.0083535351
-0.068380602 0.13166198 -0.0085875085
-0.063359939 0.12986401 -0.0083112903
-0.072594583 0.14364979 -0.011448609
-0.068330213 0.14219023 -0.010646984
-0.063412294 0.143773 -0.0089559751
-0.07514625 0.14820367 -0.012285179
-0.067477413 0.1444355 -0.0148826
-0.062775493 0.14773344 -0.011931847
-0.076772042 0.156122 -0.012279352
-0.065488778 0.1578888 -0.010713956
-0.062908314 0.15439014 -0.012650193
-0.042613406 0.15709732 -0.00929185
-0.035889894 0.15671514 -0.01063558
-0.02814755 0.15768985 -0.010946224
-0.019956155 0.15902261 -0.01005457
-0.074621618 0.16162591 -0.012743068
-0.068941675 0.16194889 -0.012589383
-0.042843234 0.16378734 -0.010133437
-0.035717364 0.16363406 -0.013897131
-0.027335772 0.16293451 -0.013789888
-0.01973604 0.163453 -0.012132777
-0.013860449 0.16341294 -0.013041691
-0.041188668 0.1697695 -0.0098303379
-0.035721127 0.17198771 -0.012977324
-0.026649613 0.17209992 -0.010532813
-0.020753451 0.17146663 -0.013929458
-0.0142624 0.16833466 -0.015557033
-0.033316806 0.1773608 -0.010894395
-0.027252065 0.18016908 -0.011520576
-0.021935862 0.18052162 -0.013211936
-0.021581961 0.18496875 -0.01412021
-0.067649439 0.035677545 -0.0040465673
-0.060617231 0.034230504 -0.0045258896
-0.052123953 0.033476591 -0.0040965001
-0.044329759 0.033735342 -0.0039168233
-0.034974307 0.038060851 -0.0044293925
-0.028209006 0.038357902 -0.0039826753
-0.020151582 0.038469709 -0.0040465468
-0.011934686 0.038707722 -0.003957571
-0.0037692126 0.03897313 -0.0039489344
0.0040177247 0.037561972 -0.004056274
0.012001557 0.034415826 -0.0039587859
0.019864704 0.036055163 -0.0045213196
0.028448032 0.038718276 -0.0022068801
0.034496132 0.039295021 -0.0009044176
-0.066320769 0.0421151 -0.0026419973
-0.060249168 0.044218402 -0.0045970227
-0.054244239 0.046413489 -0.0066698086
0.022955799 0.040848363 -0.0073396433
0.028183483 0.043479741 -0.0058895964
0.035967965 0.044352718 -0.0045282999
0.043206118 0.04561365 -0.0027769965
0.048861898 0.047435999 -0.00062094798
-0.056762449 0.051281791 -0.0012356006
-0.053762779 0.052260373 -0.0055990885
0.031107968 0.049077068 -0.0075770202
0.036283866 0.051715571 -0.0067563895
0.043935414 0.05184434 -0.0059342543
0.050624728 0.052370049 -0.0028133679
-0.065802455 0.062741213 -0.0020362998
-0.058892708 0.060553171 -0.0026552004
-0.054897361 0.058747888 -0.005746502
0.03879495 0.059259947 -0.0063016433
0.043840233 0.059908323 -0.0042932462
0.051903494 0.059784975 -0.0029363283
-0.074473217 0.070402026 -0.0029469796
-0.068678685 0.067054555 -0.0045922566
-0.06122119 0.064760245 -0.0070175654
0.04260039 0.067940362 -0.0038459229
0.050989565 0.065243952 -0.00092324667
-0.081070341 0.077597402 -0.0025776445
-0.077898644 0.07521493 -0.0054249223
0.042998675 0.076059066 -0.0041982168
-0.082853422 0.083819106 -0.0038304355
-0.079445802 0.081348099 -0.0075230398
0.043294262 0.083902627 -0.0042941482
-0.0840877 0.091840297 -0.0040687448
0.039312799 0.095596403 -0.0078028599
0.042494036 0.092364527 -0.0043821596
-0.083130352 0.099816643 -0.0038590899
-0.079618931 0.101795 -0.0075751101
0.038686797 0.10147551 -0.0058948454
0.041148648 0.09929584 -0.0026663034
-0.081677705 0.10732728 -0.0023712795
-0.077630281 0.10876344 -0.005986623
0.035872415 0.10810296 -0.0039492184
-0.083064213 0.11676282 -0.0021143991
-0.076435156 0.11577673 -0.0058010453
-0.0718688 0.11574 -0.0077659748
0.023163235 0.1192 -0.0071250065
0.028435118 0.11669593 -0.0045081787
0.033246674 0.11336014 -0.0023780754
-0.084339648 0.12401185 -0.0032691152
-0.077322148 0.12342907 -0.0068967086
-0.057835724 0.12523177 -0.00744273
-0.052058216 0.12609711 -0.0061519449
-0.043424405 0.12691733 -0.0044922708
-0.035981104 0.12512726 -0.0041718413
-0.028138217 0.12320311 -0.0039476277
-0.0200023 0.12406968 -0.0042843116
-0.012551876 0.12567067 -0.0046636644
-0.0039899377 0.12683208 -0.0059613502
0.0039105341 0.12678283 -0.0058719465
0.012454637 0.12586141 -0.0048441794
0.020020764 0.12310345 -0.0036784387
0.025494087 0.12065621 -0.001875909
-0.08333502 0.13135184 -0.0026913714
-0.07685928 0.13216147 -0.0064338855
-0.068235621 0.135149 -0.0078390026
-0.059386659 0.13221964 -0.0067600538
-0.05226751 0.13170102 -0.0032576167
-0.046032351 0.12841962 -0.0012266377
-0.009174888 0.12829976 -0.00099813659
-0.0040739547 0.12870111 -0.002045159
0.0041584745 0.12881261 -0.0023434123
0.010481427 0.12855878 -0.0012013782
-0.081504598 0.13913913 -0.0017552617
-0.076362111 0.13988456 -0.0057207784
-0.067698069 0.13888434 -0.0077128988
-0.059751786 0.14013156 -0.0052177487
-0.054153804 0.13935843 -0.0017850349
-0.080589153 0.14556949 -0.0010766711
-0.077394433 0.14817236 -0.0046691927
-0.060532022 0.14810592 -0.0034148463
-0.051688422 0.14819928 -0.0023865683
-0.044219214 0.14905885 -0.0035535402
-0.037708748 0.15071614 -0.0032790732
-0.075586461 0.15568793 -0.0045404816
-0.067587391 0.15613741 -0.0038766521
-0.05933689 0.15342075 -0.002238062
-0.051894054 0.15645608 -0.0039386894
-0.044721033 0.15425575 -0.0071904096
-0.034770127 0.15299329 -0.0050585391
-0.028052125 0.15580027 -0.0035922509
-0.021796262 0.15839303 -0.0051540537
-0.070480697 0.1602 -0.0076860199
-0.050297793 0.16346937 -0.0034257038
-0.046729587 0.16451994 -0.0069388249
-0.034787968 0.16412561 -0.0021879547
-0.028396172 0.16370097 -0.0049919928
-0.020501522 0.16183548 -0.005845984
-0.043667573 0.17061332 -0.0040762546
-0.035531245 0.17246805 -0.0028622518
-0.030250693 0.1725314 -0.005995628
-0.034120303 0.17695607 -0.0059277951
-0.028964395 0.17867954 -0.0063752462
-0.072447903 0.036157403 0.0044075977
-0.068966649 0.034961984 0.0037723756
-0.059817594 0.033508398 0.0040380927
-0.051788647 0.033550076 0.0039973417
-0.044040807 0.033774205 0.0044620214
-0.037674341 0.033697195 0.0047435011
-0.027398126 0.038204607 0.0035927149
-0.019832078 0.038311914 0.00399106
-0.011728911 0.038494021 0.0040398315
-0.0039347587 0.038349304 0.0041207564
0.0038309898 0.034878645 0.0040643946
0.011838485 0.034711365 0.0025762736
0.019787196 0.034892667 0.0037107004
0.027557947 0.03547322 0.0041280654
0.035971794 0.037784342 0.0040577343
0.041140851 0.039365381 0.0062026507
-0.06815628 0.043288417 0.0040858099
-0.061782401 0.046689484 0.004140649
0.044421125 0.042270523 0.0032637485
0.050704125 0.046183094 0.0042529497
-0.057436127 0.051327892 0.0040576789
-0.055946402 0.054125551 0.00767881
0.05441599 0.051138639 0.0025289296
0.057035744 0.053509723 0.0053004269
-0.067641899 0.062039699 0.0042272299
-0.059372697 0.058546998 0.0040807952
0.055676244 0.059906397 0.00046858037
0.058347929 0.060110018 0.0041413582
-0.080316603 0.071969554 0.0060839201
-0.075590856 0.068084598 0.0044033751
-0.070550784 0.064680025 0.0012174591
0.045844734 0.069343552 0.0019737778
0.052244298 0.069347121 0.0030858624
0.057760797 0.067677915 0.0049224845
-0.082746252 0.076180756 0.0042603607
-0.079034746 0.073232397 0.0010317685
0.045813661 0.075820476 0.0037510972
0.052181713 0.072341658 0.007482003
-0.088315152 0.087437823 0.0059754024
-0.085883826 0.083584763 0.0038061077
0.045500774 0.084078014 0.003691769
-0.088450395 0.09147805 0.0065998393
-0.086892188 0.092321016 0.0028540469
0.04488885 0.092465669 0.003678916
-0.088414378 0.098244287 0.0069180466
-0.086566344 0.10045332 0.0034826461
0.042730875 0.10007866 0.0036755584
-0.084905267 0.10824066 0.0038525232
0.038096476 0.10886029 0.003603617
0.040782336 0.10496607 0.0043065045
-0.089908727 0.11751211 0.005101576
-0.086373247 0.1151753 0.0021358109
0.030336386 0.11867013 0.0035883978
0.034071587 0.11484064 0.0041901781
-0.089739099 0.12384174 0.0040571969
-0.087948203 0.1253275 0.00026871852
-0.040043801 0.12799799 0.00072592101
-0.035111949 0.12699871 0.0036927308
-0.028164919 0.12531158 0.0038726109
-0.020225322 0.12667201 0.0036818972
-0.014920721 0.127693 0.0019039264
0.014987733 0.12787533 0.00052462326
0.020432716 0.12588504 0.0036544334
0.026486635 0.12194349 0.0043432768
-0.089497276 0.13117148 0.0049142102
-0.086790875 0.13235886 0.0012237114
-0.048983477 0.13416231 0.0028067732
-0.044577152 0.1299184 0.0040318612
-0.038681909 0.12824056 0.0054706177
-0.0166177 0.12817399 0.0064430702
-0.011465591 0.12904073 0.0043295254
-0.0038632904 0.1302789 0.0037535673
0.0041515911 0.1307863 0.0036817163
0.011918339 0.12968241 0.0039402382
0.0166793 0.12826283 0.0055974233
-0.088573098 0.1363845 0.0067060902
-0.085291646 0.13991512 0.0035791299
-0.05019379 0.14019607 0.0037065523
-0.083483092 0.1479978 0.0039600064
-0.079745702 0.15096666 0.00049861864
-0.048852608 0.14443591 0.003325935
-0.044378676 0.14759599 0.0042094924
-0.038655959 0.15039913 0.0016887229
-0.081559233 0.15289825 0.0058731013
-0.075690135 0.15473568 0.0037440921
-0.06782461 0.15519835 0.0039245212
-0.05984427 0.15611239 0.0033314673
-0.055311263 0.15943559 0.0055717244
-0.043021686 0.1561126 0.0060871234
-0.036216229 0.1558219 0.002925358
-0.030034298 0.15834118 0.0010352322
-0.051460624 0.16284566 0.003717901
-0.044033807 0.16396274 0.0045840428
-0.038502101 0.16384 0.0014895834
-0.043008041 0.16902293 0.0015719227
-0.037687548 0.16972198 0.0012096558
-0.072164655 0.036060348 0.0082278848
-0.06787879 0.036149621 0.0118136
-0.060164973 0.033848803 0.012038885
-0.053046502 0.033864483 0.011119627
-0.043034438 0.035492469 0.0085995421
-0.035793312 0.034420718 0.011447432
-0.026947768 0.03703285 0.012244242
-0.019874729 0.03817163 0.01199498
-0.012258599 0.03834372 0.011995321
-0.0036211617 0.037400052 0.012003828
0.0029158974 0.034231573 0.012254078
0.022653662 0.035466697 0.011519194
0.027837694 0.034828842 0.012175887
0.03610893 0.036870558 0.012308542
0.041466076 0.039363489 0.012059693
-0.066444106 0.042332709 0.010620203
-0.060288478 0.044645857 0.012316561
-0.054115795 0.04660169 0.014280379
0.045416314 0.041266043 0.011837797
0.051620696 0.045457009 0.011713685
-0.056511451 0.049474999 0.008993336
-0.052901085 0.0523744 0.012433324
0.055809733 0.049400702 0.0091974102
0.057883941 0.052585613 0.011884478
-0.072270721 0.063665852 0.011613593
-0.068151467 0.061091367 0.012296844
-0.060001593 0.058283664 0.011993627
-0.054968745 0.056303341 0.01029705
0.060434803 0.060234506 0.011660985
-0.076672949 0.068004973 0.012002026
0.059548218 0.068551958 0.011691872
-0.083005846 0.07571061 0.01219998
0.046693292 0.076366946 0.011653077
0.052109815 0.073205687 0.012027765
0.056633659 0.072472014 0.0129878
-0.088522062 0.087116264 0.011832047
-0.086752623 0.083116144 0.012029591
0.046014819 0.084126323 0.011671729
-0.08926893 0.092230551 0.011943216
0.045153677 0.092494398 0.011662283
-0.089001901 0.10005148 0.012152023
-0.087812394 0.10330425 0.0091395527
0.043081176 0.1001149 0.011661463
-0.089088961 0.11189562 0.011847906
-0.086912639 0.10770265 0.011860325
0.038382873 0.10944576 0.012067772
0.040813189 0.10535796 0.011263601
-0.092043862 0.11591098 0.011897072
0.030982312 0.118976 0.012039492
0.034367517 0.11498754 0.012127797
-0.093158402 0.12343914 0.011774976
-0.0406463 0.127804 0.0152535
-0.035204325 0.12731029 0.012456574
-0.028398477 0.12593256 0.012137358
-0.021306837 0.12723114 0.011935947
0.021145839 0.12642829 0.011911459
0.026956497 0.12251144 0.012040913
-0.091685414 0.13162814 0.011733408
-0.048186 0.135579 0.0083949398
-0.044768602 0.13144818 0.011939048
-0.038689759 0.12830418 0.010423466
-0.017246449 0.12834933 0.012252823
-0.011939641 0.12965415 0.01197168
-0.0039810096 0.13101247 0.012154919
0.0041437307 0.13160601 0.012097877
0.012219575 0.1303107 0.01191436
0.017159065 0.12844764 0.01221977
-0.089389741 0.13940482 0.012471819
-0.087217696 0.14139809 0.0090941256
-0.049170598 0.13987789 0.012137246
-0.089695804 0.14804018 0.012680506
-0.08690954 0.1493966 0.0092028826
-0.050288059 0.14763772 0.012446688
-0.04698991 0.14920209 0.0089076804
-0.083357476 0.15376884 0.012417708
-0.075994194 0.15562868 0.012023517
-0.068037756 0.15597357 0.011924289
-0.0599158 0.1558892 0.012053549
-0.052008756 0.15537094 0.011321039
-0.046754472 0.1548626 0.0089017209
-0.064517684 0.03640208 0.017838139
-0.060733542 0.035726149 0.019442668
-0.054394718 0.033614852 0.020719737
-0.034407675 0.034337632 0.01998228
-0.027984818 0.036589138 0.01993246
-0.020156208 0.038148239 0.020012014
-0.011907986 0.038333494 0.020027092
-0.0034880515 0.038145386 0.019745216
0.0034659542 0.035428777 0.020329619
0.011284851 0.034626976 0.02156939
0.020684995 0.035047669 0.020811411
0.028011477 0.035936117 0.020107109
0.035532676 0.038030643 0.0199032
0.040770251 0.039641 0.018170776
-0.05864244 0.041998643 0.019845041
-0.052975375 0.045731336 0.020093156
0.039444052 0.040168799 0.0224474
0.044346783 0.041954372 0.020266049
0.051046126 0.045883819 0.019686397
-0.051046707 0.052009784 0.020054532
0.054476026 0.04984865 0.021323709
0.057646628 0.053391207 0.019435553
-0.072118603 0.063710801 0.0173676
-0.067630738 0.062101182 0.019855151
-0.06031673 0.059713509 0.020236451
-0.05359919 0.057632331 0.021326507
0.059312668 0.060210902 0.020003311
-0.080305099 0.071922898 0.0175051
-0.075771555 0.068407133 0.019892501
-0.070962936 0.065117911 0.022267822
0.046354279 0.070751272 0.021885764
0.051956326 0.071017817 0.022395872
0.058491688 0.068114653 0.019788356
-0.082579702 0.076483496 0.019674839
-0.079416431 0.072914295 0.021575285
0.045771614 0.075821489 0.020207373
0.052339297 0.072806597 0.018489415
0.056596 0.072346151 0.016679399
-0.088455558 0.087517925 0.018459639
-0.086188361 0.083684601 0.020236686
0.045431476 0.083784901 0.019772815
-0.089080229 0.092373498 0.020056931
-0.087775998 0.089190602 0.023514699
0.044393357 0.092449434 0.019660303
-0.088800259 0.099353023 0.019417658
-0.087320879 0.1023907 0.021798488
0.042111427 0.10007082 0.019663826
-0.088944361 0.11189421 0.018329939
-0.0862322 0.10805497 0.02003823
0.038113542 0.10876169 0.019934399
0.040459018 0.10463919 0.018564589
-0.091792218 0.11531042 0.019854713
-0.087324455 0.11224 0.022969451
0.030600086 0.11877175 0.020350525
0.033992875 0.11493185 0.019956784
-0.094349921 0.12350313 0.019772887
-0.042919017 0.12601067 0.020754416
-0.035848308 0.12569939 0.020058202
-0.02826982 0.12420201 0.020105897
-0.020410145 0.12616882 0.020301441
-0.014687 0.12774925 0.022761051
0.01569175 0.1277815 0.0233049
0.020345483 0.12624165 0.020166891
0.026717585 0.12222111 0.019814497
-0.0923777 0.13169067 0.019728629
-0.04875211 0.13515408 0.021212859
-0.046108972 0.13146515 0.019582037
-0.01708445 0.12814325 0.017527001
-0.011617295 0.12926911 0.019591119
-0.003774212 0.13051891 0.020118076
0.0042530242 0.13096827 0.019997101
0.012079013 0.12979488 0.019917946
0.016668361 0.12846039 0.017803241
-0.090982556 0.13992032 0.019680187
-0.050982215 0.13993675 0.02001903
-0.09075617 0.14841382 0.019665418
-0.052657615 0.1481062 0.019742157
-0.088623203 0.15207399 0.018229701
-0.083915569 0.15386161 0.020021554
-0.076019466 0.15582308 0.020043436
-0.06803529 0.15628012 0.019910075
-0.059967373 0.15557624 0.020089233
-0.054593127 0.15342769 0.019986412
-0.065416008 0.03653207 0.028774997
-0.060079198 0.03447555 0.02783734
-0.051916353 0.034196973 0.028295053
-0.043678369 0.034183547 0.029128173
-0.036010768 0.034471236 0.027927656
-0.02773062 0.037864827 0.028018115
-0.019903932 0.038433857 0.027935168
-0.012101453 0.038616244 0.028054185
-0.0041737254 0.038812622 0.028051402
0.0044020512 0.038288448 0.027543234
0.011491995 0.035566472 0.028162498
0.020067159 0.035410389 0.027769314
0.027255587 0.038138218 0.026947809
0.0339556 0.039503831 0.025262715
-0.06453602 0.041691892 0.029771145
-0.06056923 0.044342361 0.027896168
-0.054780439 0.047357835 0.026668256
0.029993791 0.042412769 0.030053698
0.03609604 0.043694463 0.02883435
0.043347009 0.045171734 0.027723156
0.048616868 0.046593469 0.025154533
-0.0567258 0.048040502 0.031668399
-0.052219871 0.052463416 0.028199151
0.036939569 0.051673915 0.031608477
0.045752216 0.050685372 0.030807709
0.051319577 0.052366305 0.027473595
0.056033701 0.0553031 0.024595199
-0.065287754 0.063422337 0.025601016
-0.059716284 0.06255874 0.027414816
-0.052895706 0.06000194 0.028860681
0.03902493 0.059220694 0.031225275
0.043689985 0.060675874 0.030345982
0.052233782 0.06020432 0.028906398
0.056709133 0.060330119 0.025135292
-0.074373603 0.070026442 0.027372684
-0.068468779 0.066592842 0.028391143
-0.061988473 0.064766161 0.030746365
0.043035205 0.067716569 0.028002407
0.05221162 0.067273751 0.026241973
0.056761425 0.065505728 0.024893001
-0.081437856 0.078047842 0.027040033
-0.077968776 0.074973851 0.028934928
0.042719223 0.075893924 0.02799673
-0.083591826 0.083598472 0.028131897
0.042924222 0.083939284 0.027753878
-0.085283726 0.091766469 0.028087448
0.039745066 0.094039261 0.031267036
0.041917339 0.09202873 0.02761925
-0.084478565 0.10002703 0.028145064
0.03845584 0.1008147 0.029205255
0.040894333 0.098851748 0.02584995
-0.083081491 0.10819293 0.027974308
-0.079624139 0.10566067 0.031687066
0.031521101 0.1107395 0.031679802
0.035938341 0.10786185 0.027760144
-0.090802975 0.11629045 0.027641227
-0.086822353 0.1127475 0.028231326
-0.048984442 0.11882871 0.031220313
-0.044675 0.1184871 0.030372551
-0.035689965 0.11857915 0.030692106
-0.028260106 0.1188357 0.030332753
-0.023546699 0.119499 0.031653699
0.02345 0.1193555 0.031435851
0.028735124 0.11673129 0.028742943
0.03328241 0.113435 0.026486766
-0.093068935 0.12352356 0.027779208
-0.048868228 0.12437528 0.030683018
-0.045172926 0.12302505 0.026767606
-0.035978258 0.12212769 0.026967978
-0.027833397 0.12133497 0.026515303
-0.019933309 0.1230351 0.028121566
-0.012149428 0.12573105 0.028895328
-0.0039700377 0.12669981 0.030290855
0.0040554483 0.12689488 0.030067964
0.012806254 0.12607028 0.029177079
0.020056384 0.12346362 0.028021365
0.025600562 0.12128712 0.026076568
-0.091304235 0.13172485 0.027729744
-0.050361205 0.1326064 0.02876669
-0.047260541 0.1295118 0.02567091
-0.00995111 0.1283475 0.025311867
-0.0040803696 0.12895672 0.026206715
0.0039468459 0.1292228 0.026209779
0.010612104 0.12878273 0.025505042
-0.089796863 0.14000233 0.027689613
-0.056593735 0.14132722 0.031440869
-0.053610127 0.13962451 0.027758395
-0.089763522 0.1468845 0.027046457
-0.086031839 0.1504136 0.028849157
-0.05675111 0.14851274 0.031326581
-0.054578707 0.14816935 0.027117215
-0.082377575 0.15310676 0.027035749
-0.075974725 0.15451834 0.02811314
-0.067959003 0.15516099 0.028043659
-0.059837434 0.15430509 0.028021827
-0.055116598 0.15293337 0.025892738
-0.065849401 0.036643088 0.036097713
-0.060235664 0.034422994 0.036043867
-0.05232444 0.03450352 0.03601858
-0.044225942 0.034548592 0.035963103
-0.036560167 0.034600575 0.03607529
-0.027140634 0.038650647 0.034888919
-0.019874688 0.038992308 0.035951652
-0.012136822 0.039151136 0.035679702
-0.0039752433 0.038902588 0.035086762
0.0042103874 0.037341777 0.03561727
0.012210535 0.035123993 0.035771593
0.02012499 0.036515221 0.035942681
0.02476025 0.039158173 0.033010449
-0.064890131 0.041848525 0.035742588
-0.061634757 0.045567919 0.036657125
-0.051329717 0.047761131 0.039668664
-0.046000078 0.047805201 0.039727077
-0.037501238 0.047824159 0.039730258
0.023476738 0.043284923 0.039321989
0.026958587 0.04445672 0.035941288
-0.057031918 0.048161201 0.035593938
-0.050950512 0.051288694 0.035535634
-0.044166863 0.052149124 0.038736988
-0.035975527 0.051906999 0.038721807
-0.028850632 0.053542398 0.037630249
0.023857901 0.0490757 0.039523602
0.028822955 0.051459208 0.037716083
0.034690615 0.052245591 0.033591446
0.042792574 0.052535757 0.032342747
-0.049806204 0.060336381 0.034143794
-0.04540303 0.059168331 0.038448092
-0.034714442 0.058651868 0.039009921
-0.02832034 0.059732106 0.037948929
0.031013073 0.056768753 0.0394217
0.03564347 0.059937131 0.036165092
0.045522701 0.056943636 0.032098804
-0.072165251 0.07141535 0.032662049
-0.067292258 0.069771267 0.034325611
-0.059683349 0.068219945 0.036047954
-0.05193739 0.067257054 0.03688686
-0.046330545 0.065871537 0.039019786
-0.032842565 0.065173037 0.039627433
-0.029221157 0.067316242 0.039140899
0.036827821 0.067973524 0.036497515
-0.074959986 0.076703712 0.034531545
-0.068786524 0.074973673 0.037910916
-0.062706925 0.072744451 0.039240625
0.037232321 0.075971469 0.03657914
0.040492799 0.075949885 0.032172401
-0.080993176 0.085023679 0.033198293
-0.076583549 0.083603896 0.037035789
-0.0711952 0.080557697 0.039776199
0.037322227 0.084126987 0.036602527
0.04044925 0.083711699 0.032631248
-0.081257872 0.091953099 0.03324382
-0.077281661 0.092213698 0.03740301
0.036952253 0.092330709 0.036192626
-0.080883346 0.098399311 0.032986406
-0.076267377 0.10027482 0.036371812
-0.070656113 0.10166875 0.039407805
0.030052667 0.10174239 0.038356114
0.034764908 0.099511549 0.035195403
-0.088260204 0.111934 0.037383702
-0.083923459 0.11056685 0.036259029
-0.076409385 0.10723034 0.036286511
-0.068225943 0.10776144 0.038294151
-0.06001465 0.10905568 0.038256638
-0.051880974 0.10890564 0.03840664
-0.043617319 0.1091311 0.038302191
-0.036250398 0.10797298 0.037936527
-0.028546274 0.10950099 0.038404036
-0.022309098 0.1110208 0.03952644
0.012249342 0.11068666 0.039575342
0.020825362 0.10916076 0.03888604
0.028062481 0.10804154 0.036316331
0.033001438 0.10577967 0.033253178
-0.091373682 0.11565105 0.035859969
-0.087826103 0.11219 0.033709701
-0.064789802 0.11239 0.038642853
-0.059295688 0.11532638 0.03759766
-0.052340262 0.11615562 0.034757778
-0.043798663 0.11445202 0.034159482
-0.035997111 0.11444392 0.033735264
-0.027908193 0.11471144 0.034321647
-0.019937048 0.11604224 0.036512043
-0.012407805 0.11739765 0.038062833
-0.0042644171 0.11843126 0.038712148
0.0045005218 0.11773658 0.038520217
0.011773434 0.11613978 0.037508428
0.020087425 0.11595064 0.035414729
0.026512653 0.11397611 0.033553418
-0.092690341 0.12355883 0.035770316
-0.056805 0.1242885 0.039576814
-0.052822802 0.12400886 0.035696298
-0.017998224 0.1209165 0.033015452
-0.01163272 0.12216373 0.034330755
-0.00382037 0.12314562 0.034728866
0.0041279518 0.12302643 0.03450577
0.01178771 0.12229244 0.03396875
0.018526722 0.12080756 0.032837257
-0.090477839 0.13179804 0.035885721
-0.059444662 0.13246028 0.037601944
-0.053746153 0.13085674 0.034232561
-0.08920987 0.13945158 0.035398249
-0.087166332 0.14232022 0.038413368
-0.064270169 0.14105977 0.039302722
-0.060521197 0.14023714 0.035177633
-0.088326648 0.1445355 0.033015549
-0.083795078 0.14759307 0.035877503
-0.076701343 0.15014547 0.037417803
-0.067606449 0.14954296 0.038184084
-0.060521837 0.14847621 0.035542551
-0.07484109 0.15271606 0.033728592
-0.067718402 0.15299965 0.034036536
-0.061218861 0.15281114 0.033322893
-0.064658858 0.036686715 0.040685344
-0.060088176 0.036470983 0.043813474
-0.052040763 0.036014892 0.044782925
-0.044198927 0.036386572 0.0433334
-0.03617429 0.036218628 0.044113889
-0.028555265 0.034785341 0.044634894
-0.020190096 0.034789883 0.045811277
-0.011848422 0.03477098 0.045109101
-0.0035499772 0.035711702 0.045077439
0.0036572064 0.036473922 0.044537839
0.011821238 0.036327787 0.043288171
0.018600389 0.038020529 0.04197716
-0.05956468 0.043237038 0.04318757
-0.052157421 0.043675639 0.044212598
-0.044055257 0.043803133 0.042388458
-0.036137637 0.044105705 0.043482479
-0.030311244 0.047113039 0.046515532
-0.010169047 0.046937 0.047799718
-0.0032260248 0.043664496 0.047179352
0.0040343427 0.042748794 0.04601635
0.012095848 0.044067703 0.044964328
0.019856364 0.044034295 0.042236257
-0.032996815 0.04888634 0.04144416
-0.027378986 0.05085063 0.043240014
-0.020713359 0.052191187 0.045723379
-0.015158534 0.049067497 0.047828764
0.014026482 0.04994408 0.046732083
0.02035257 0.051906094 0.04424658
0.02586047 0.0540783 0.041255739
-0.04203897 0.060949612 0.040557444
-0.037639685 0.061255272 0.040823851
-0.024865983 0.060131494 0.041002538
-0.02205988 0.060118046 0.045090351
0.022369854 0.059614524 0.046589103
0.027707834 0.06011194 0.042701159
0.032689251 0.062621199 0.040155999
-0.048638299 0.071685851 0.04039355
-0.043733582 0.068827853 0.041234668
-0.036210194 0.068569146 0.041415352
-0.026015541 0.06869325 0.042643126
-0.023074184 0.06709142 0.046366252
0.022562206 0.067101151 0.046720207
0.027962727 0.068031378 0.043047197
0.032726265 0.068012781 0.040240202
-0.066357605 0.078082159 0.040949889
-0.059924141 0.075939603 0.04190319
-0.05208727 0.075644925 0.042488109
-0.04399617 0.07618878 0.042618625
-0.036003627 0.076137528 0.041967556
-0.028091252 0.075611293 0.043694027
0.028244978 0.075977348 0.044680838
0.033182282 0.076731846 0.041089561
-0.072805069 0.086055554 0.040502135
-0.068005197 0.084123723 0.042613048
-0.059992477 0.084033065 0.044185456
-0.051995318 0.084090412 0.044970263
-0.043995302 0.083955504 0.043280244
-0.035997529 0.083943091 0.043017764
-0.029436594 0.083931632 0.044786539
0.028305519 0.084335111 0.044997118
0.033522647 0.084425271 0.041342568
-0.073366791 0.09171626 0.040756837
-0.06820748 0.092225268 0.04273732
-0.059994593 0.092519112 0.044830803
-0.052163314 0.092261814 0.044478316
-0.043912463 0.092317246 0.043010294
-0.036118384 0.092295773 0.043769151
-0.027953003 0.092291355 0.045204166
-0.022685885 0.095460653 0.046349872
0.021161454 0.093380652 0.047486857
0.028017234 0.092235863 0.044320974
0.033300679 0.091346465 0.041021477
-0.072656333 0.097323634 0.040263664
-0.067678712 0.099538371 0.041335162
-0.059996806 0.1001371 0.042557195
-0.051821552 0.099858187 0.042740334
-0.044077348 0.10000993 0.04208516
-0.035853975 0.099914573 0.042215426
-0.027995326 0.099599138 0.043667596
-0.020034064 0.10015046 0.044379249
-0.012550542 0.10117698 0.044816852
-0.003683595 0.10153095 0.0451198
0.0037942226 0.10151026 0.045529965
0.012465062 0.1012079 0.047095552
0.02015502 0.099984221 0.045628212
0.027034713 0.09929429 0.042090513
-0.082990341 0.11099416 0.042372186
-0.075897634 0.11031389 0.043730225
-0.069563262 0.11019112 0.042864103
-0.059996266 0.104981 0.040833008
-0.05228281 0.10487171 0.040557075
-0.044603173 0.10545794 0.040687099
-0.033258952 0.10462225 0.040399775
-0.027361898 0.10571323 0.041131686
-0.019730384 0.10749125 0.04174934
-0.01198816 0.10792089 0.042798281
-0.0038918855 0.10787296 0.043429703
0.0041213082 0.10804567 0.042182554
0.011822286 0.10697228 0.042288531
0.019194167 0.10591546 0.042006221
-0.090190291 0.11628319 0.043019745
-0.085064165 0.11425159 0.045883171
-0.07759098 0.11284708 0.047167983
-0.066109501 0.11423324 0.044792529
-0.062375441 0.11822999 0.042908818
-0.011090253 0.11359961 0.040708665
-0.0037619385 0.11439275 0.041097857
0.0035992351 0.11392123 0.040888291
0.0082325302 0.112336 0.040154502
-0.090811349 0.12339913 0.043785956
-0.08746624 0.12416843 0.047399245
-0.064501859 0.12558682 0.047202785
-0.061082717 0.12395384 0.042970892
-0.089360707 0.13094907 0.04233082
-0.086687759 0.13271831 0.046105094
-0.066235662 0.1324371 0.044641986
-0.062411454 0.12949263 0.041377679
-0.088467866 0.13692133 0.040651768
-0.084229559 0.13990408 0.043787755
-0.076242387 0.14166616 0.046611894
-0.067898154 0.1401754 0.044048227
-0.081527635 0.14512685 0.041250557
-0.075911194 0.14626838 0.042633619
-0.069422975 0.14653845 0.041789141
-0.033384927 0.037427001 0.049510606
-0.027982855 0.036577627 0.051976055
-0.020036737 0.036343437 0.051835891
-0.012115761 0.037028462 0.049994856
-0.0057683005 0.037634481 0.048521366
-0.033213925 0.042028032 0.049292803
-0.027730392 0.043760184 0.05148802
-0.01994933 0.04398793 0.052384343
-0.012174524 0.043490998 0.049859967
-0.0052549588 0.0443829 0.048694689
0.0041907579 0.046866026 0.049271327
0.0089781852 0.04729785 0.0485893
-0.025482433 0.048665732 0.048948467
-0.018701755 0.052406397 0.04920454
-0.011940087 0.052197021 0.050697885
-0.0039955797 0.051909991 0.052779622
0.0040037995 0.051890861 0.052595973
0.011389092 0.052402642 0.050298173
0.0175872 0.054941233 0.048118632
-0.01827467 0.060492992 0.050399959
-0.01215772 0.059833914 0.053659111
-0.0041445703 0.05860614 0.054653425
0.0047785323 0.058963377 0.054446388
0.011953986 0.059551481 0.051853698
0.018432735 0.05996776 0.048807986
-0.01945417 0.068287604 0.051894542
-0.012310873 0.067693844 0.054783504
-0.0072506424 0.067506701 0.055911422
0.0054224231 0.06820906 0.055669278
0.011947228 0.067879267 0.053755444
0.018910605 0.068294987 0.049945708
-0.025366727 0.077838227 0.050457958
-0.020880073 0.075313024 0.053542361
-0.01429522 0.073325679 0.055667542
0.0062275343 0.079201482 0.055747859
0.012074266 0.076086096 0.054566603
0.020075249 0.076143913 0.051043559
0.02460066 0.078491114 0.048638497
-0.026008397 0.08434321 0.051091224
-0.022534259 0.085082151 0.055043399
0.0072525023 0.081640899 0.055701271
0.012099439 0.084258407 0.053877
0.020006703 0.084424585 0.05028386
0.0245445 0.081987604 0.048584618
-0.025102556 0.090165645 0.049736355
-0.020008639 0.092468776 0.052654251
-0.01239205 0.094219469 0.054742768
-0.0036032011 0.094248645 0.055211212
0.0043003256 0.092380762 0.054559626
0.012231457 0.091755137 0.052296799
0.018731816 0.090812579 0.048866745
-0.01699876 0.096749164 0.050018501
-0.011735725 0.09771926 0.050917424
-0.00395191 0.098313294 0.051469751
0.0034437224 0.098027438 0.050622378
0.011274853 0.097454689 0.048895717
-0.083211683 0.11768031 0.048653025
-0.076062255 0.11610867 0.050801728
-0.068772592 0.11616594 0.05061971
-0.083526634 0.12403402 0.049951296
-0.076095946 0.12378436 0.05268681
-0.067961439 0.12349013 0.051415399
-0.08295799 0.13156317 0.050418034
-0.075735003 0.13227493 0.051785044
-0.069948122 0.13130623 0.049597174
-0.081239901 0.13734834 0.048519317
-0.075735554 0.13820803 0.048999589
-0.071445398 0.13689801 0.048600897
-0.0085011302 0.063357502 0.056079902
-0.0036413888 0.062681675 0.056307819
0.0025071192 0.062295657 0.056441698
-0.0092867538 0.071189716 0.056653239
-0.0037026824 0.068333939 0.056864049
0.002710535 0.068208314 0.056350484
-0.018217066 0.078602701 0.056340635
-0.011671399 0.076284759 0.057040691
-0.0039996337 0.076027058 0.058331978
0.0037922258 0.075590178 0.056695554
0.0085118329 0.074466527 0.056111831
-0.018800506 0.083387941 0.056970265
-0.01199853 0.08358252 0.057375122
-0.0039974106 0.083583742 0.057345375
0.0037428259 0.083890371 0.056887507
0.0082838703 0.085990302 0.056009199
-0.017245775 0.08870995 0.056246877
-0.011739035 0.090262808 0.056585714
-0.0042535295 0.090268984 0.056581229
0.0025058319 0.088724189 0.056280389
0 0 0 1 0 0 0 1 0 0 0 1 0 0 0 0 0 1180 1 0 0
