ply
format ascii 1.0
comment PCL generated
element vertex 1313
property float x
property float y
property float z
element camera 0
property float view_px
property float view_py
property float view_pz
property float x_axisx
property float x_axisy
property float x_axisz
property float y_axisx
property float y_axisy
property float y_axisz
property float z_axisx
property float z_axisy
property float z_axisz
property float focal
property float scalex
property float scaley
property float centerx
property float centery
property int viewportx
property int viewporty
property float k1
property float k2
end_header
0.032640692 0.042203203 -0.0040985104
0.03751459 0.042545222 -0.0031126239
0.041321352 0.043348551 -0.0016128006
-0.061795577 0.045473624 -0.0014060745
-0.057682484 0.047650151 -0.0025335806
0.039387502 0.046043798 -0.0048557902
0.042804155 0.04640406 -0.004007136
0.04704991 0.047605038 -0.002471017
0.0504722 0.048918001 -0.00068491499
-0.056100976 0.052581206 -0.0020315617
-0.054850802 0.053263903 -0.0043809768
0.048354521 0.051624872 -0.0042492542
0.051840246 0.052930757 -0.0021842795
-0.056335866 0.057794742 -0.0021958277
0.0394434 0.058582801 -0.0048661898
0.042413983 0.059293784 -0.0044409414
0.0488392 0.058932599 -0.0048270803
0.052596077 0.057891484 -0.0030768195
0.05523425 0.058365501 -0.00079546554
-0.06665206 0.063344061 -0.0021943075
-0.062726423 0.061797075 -0.002322752
-0.057867955 0.06066962 -0.0027827078
0.0398205 0.060442202 -0.00479028
0.042616207 0.062586613 -0.0031965217
0.047270142 0.062486261 -0.0029261881
0.052633945 0.062469222 -0.0020623107
0.055445902 0.06046455 -0.00063481351
-0.072116584 0.068217635 -0.0021589608
-0.068620488 0.066153906 -0.0036743314
0.042561419 0.067337185 -0.0025834031
0.047819003 0.065759629 -0.00064133428
0.051451821 0.065785758 -0.00069541519
-0.077935345 0.072908632 -0.002373771
-0.074762397 0.070092097 -0.0014868299
0.043317497 0.072682641 -0.0027943712
-0.081146672 0.077522457 -0.002364214
-0.079584397 0.075923599 -0.0045167799
0.043876849 0.077638075 -0.0027844529
-0.085285798 0.084512599 -0.00051537401
-0.083057702 0.082181387 -0.0026368762
0.043775547 0.082539134 -0.0027972942
-0.085511699 0.088130414 -0.0012035189
-0.084350094 0.087606773 -0.0036403516
0.044079777 0.08746966 -0.0028028409
-0.085539423 0.092609271 -0.0015604856
-0.084604122 0.092548557 -0.0040579033
0.043183304 0.092332944 -0.002802527
-0.085406102 0.096913792 -0.00090258935
-0.084168158 0.097483635 -0.0033029492
0.041544244 0.097763211 -0.002912282
-0.083391652 0.1026936 -0.0026036578
0.039112613 0.10326587 -0.0030291427
0.040829882 0.10159183 -0.001473445
-0.081564769 0.10745207 -0.0024740314
-0.078883536 0.10948267 -0.0042463769
0.036808465 0.107411 -0.0027258231
-0.081514098 0.11282667 -0.0014477937
-0.078241043 0.11302413 -0.0037179803
0.033422172 0.11285191 -0.0028052179
0.035334934 0.11109167 -0.00094029936
-0.086240776 0.11927075 -0.0011753433
-0.082948521 0.11760549 -0.0025422308
-0.079603896 0.117409 -0.0046469271
0.027821081 0.11829077 -0.0031028478
0.031103071 0.1161479 -0.0017911578
-0.086697236 0.12254977 -0.0017192499
-0.083202533 0.12199954 -0.003928754
-0.035084501 0.124972 -0.0041723698
-0.031928815 0.1240676 -0.002851286
-0.0274342 0.12360914 -0.0026009146
-0.022765633 0.12422408 -0.0029129384
-0.017743524 0.1247275 -0.004011055
0.018191567 0.12411711 -0.0037716287
0.022475062 0.12251529 -0.0022455482
0.02613526 0.1205006 -0.0011476022
-0.08635556 0.12714508 -0.0016116564
-0.083364308 0.12743919 -0.0040153093
-0.051323436 0.12853633 -0.0039921375
-0.047382187 0.12818789 -0.0027260305
-0.042178363 0.12745883 -0.0024109806
-0.037407402 0.12650359 -0.0023644755
-0.033922259 0.12551199 -0.0013050938
-0.021663152 0.1252235 -0.00044636798
-0.017321708 0.12572646 -0.0018041874
-0.012583023 0.12672357 -0.0028150138
-0.0076388093 0.12817025 -0.0022701377
-0.0024374474 0.12848701 -0.0027477979
0.0022242635 0.12849624 -0.0028471528
0.0078406185 0.12835586 -0.0027748649
0.012669395 0.12712891 -0.0026284799
0.016915375 0.12593393 -0.0015643979
-0.085519701 0.13144499 -0.00070823799
-0.082968041 0.13247424 -0.0025689437
-0.079949602 0.13244165 -0.0046130936
-0.055410802 0.13412599 -0.0044726934
-0.052013647 0.13265301 -0.0029306442
-0.049538065 0.13147467 -0.00086848933
-0.081868894 0.13719968 -0.0019082481
-0.079413824 0.13714829 -0.0043884944
-0.056141123 0.13787474 -0.0039881109
-0.053360876 0.13719714 -0.001645479
-0.080879599 0.1421763 -0.0016131873
-0.078567117 0.14255498 -0.0040664393
-0.0606253 0.14368366 -0.00403404
-0.057234444 0.14234348 -0.0027962376
-0.053303648 0.14283711 -0.00078584458
-0.080640852 0.146607 -0.00082311401
-0.078285486 0.14737892 -0.0031627892
-0.061422061 0.14780939 -0.0033304868
-0.057496879 0.14731374 -0.0017510065
-0.051940791 0.14714219 -0.0019303965
-0.047611028 0.14737189 -0.0023113245
-0.042957149 0.14839312 -0.0026222607
-0.039352302 0.14938726 -0.0014054296
-0.077311508 0.1525037 -0.0028358747
-0.065842055 0.15415643 -0.0019920848
-0.063217022 0.15176401 -0.0022919411
-0.056870893 0.15231548 -0.0012398371
-0.052183013 0.15227327 -0.00356053
-0.047560312 0.15065643 -0.0045733429
-0.040420901 0.150087 -0.0046947398
-0.037269101 0.15073818 -0.002902227
-0.03235244 0.15322228 -0.0026621332
-0.029349223 0.15441862 -0.003852766
-0.07544104 0.155968 -0.0029265061
-0.072354414 0.15731883 -0.0026521729
-0.068173729 0.156249 -0.0027233139
-0.055639058 0.15691599 -0.00092674547
-0.052808322 0.15807283 -0.0032189714
-0.031082449 0.15516299 -0.00036272145
-0.027340407 0.15657991 -0.0021833368
-0.023090133 0.15883528 -0.003092543
-0.051808774 0.162415 -0.0025839754
-0.049589049 0.16334349 -0.0048220251
-0.036344457 0.16285355 -0.0010268498
-0.032421399 0.162429 -0.0025590798
-0.027465662 0.16173926 -0.0030049502
-0.022409648 0.16104117 -0.0035912984
-0.050103247 0.16553999 -0.001457948
-0.047252823 0.16793105 -0.0030509476
-0.044723898 0.169659 -0.00047329199
-0.035776913 0.16723029 -0.001108067
-0.033736054 0.16767606 -0.003527398
-0.042152967 0.17169632 -0.0024822569
-0.037406486 0.1734096 -0.0017901664
-0.032785773 0.17273627 -0.0026732211
-0.036044002 0.175294 -0.0038518901
-0.0323213 0.17645545 -0.0039740102
-0.0299391 0.175699 -0.0047462801
-0.071211368 0.034223367 0.0025639255
-0.067375556 0.033537444 0.0022944328
-0.062656716 0.03347297 0.0029076049
-0.057551272 0.033501651 0.0022659767
-0.052653305 0.033520143 0.002677025
-0.047523916 0.033561297 0.002569386
-0.042459399 0.033585295 0.0024215328
-0.03812632 0.033706382 0.0030749817
0.0035353675 0.034366064 0.0032307291
0.0077806767 0.034190319 0.0021557829
0.012521312 0.034298334 0.0019756965
0.01801021 0.034478519 0.0017417422
0.021856289 0.034650318 0.0026931081
0.025095699 0.034806099 0.0031996099
-0.071770184 0.037640873 0.0019370257
-0.031025132 0.038167067 0.0023535232
-0.027535608 0.038244743 0.0025166313
-0.022677006 0.038297985 0.0024151749
-0.017466754 0.038374577 0.0024933671
-0.012527791 0.038500771 0.0025497882
-0.0074894479 0.038636614 0.0024446931
-0.0024339112 0.038575836 0.0026020308
0.0011261579 0.036536641 0.0023940634
0.00950584 0.035532299 0.0040684049
0.012328975 0.035411097 0.0038154875
0.016582916 0.035601247 0.0037014559
0.0242713 0.035753999 0.00029446199
0.027715649 0.036189511 0.0015388759
0.032557745 0.037393231 0.0016501466
0.038125772 0.038727317 0.0031102111
0.041004699 0.039595701 0.0043142
-0.070429735 0.040666878 0.0021144648
-0.068308622 0.043320835 0.0027909044
0.042452149 0.04172641 0.0017077988
0.046881597 0.043850511 0.0026832505
-0.06522505 0.0458804 0.0041839499
-0.062789291 0.046240419 0.0019456301
-0.058402218 0.048786104 0.0026554004
0.049298123 0.046392325 0.0010731708
0.05215355 0.048042383 0.0027088712
-0.05717326 0.05283457 0.0026396005
0.054198496 0.052015334 0.0011102794
0.055837233 0.053098656 0.0029751356
-0.061251052 0.059870325 0.0031862201
-0.057907 0.057969186 0.0024851547
0.057029292 0.057514615 0.0023632161
-0.071000613 0.064160667 0.0032281568
-0.067819946 0.06270624 0.0021297713
-0.06329602 0.060695715 0.0021929811
0.0573023 0.062736526 0.0021926316
-0.075589634 0.068293259 0.0035068744
-0.073530219 0.06660109 0.0022046922
0.044201497 0.068484165 0.00065893197
0.047435105 0.068251111 0.0015954511
0.05288101 0.067953683 0.0014520258
0.05673055 0.067525588 0.0030157804
-0.081093855 0.074055918 0.0030402937
-0.077859953 0.071413599 0.0022768893
0.0445235 0.072505914 0.00072769972
0.046633381 0.072248496 0.0033839084
0.052655149 0.070638619 0.0041755931
-0.08317358 0.077612229 0.0025145099
0.0449154 0.076323099 0.00019353
0.045559816 0.077687003 0.0024673354
-0.085917331 0.083973832 0.0027104886
-0.084092915 0.081243828 0.0023145175
0.044687334 0.083770178 0.00087101752
0.045461971 0.082169659 0.0027692632
-0.087051086 0.087639682 0.0022997651
0.044949766 0.087077938 0.00051575067
0.045308698 0.087689199 0.0026002801
-0.086712085 0.092255197 0.0026074513
0.044529814 0.09295059 0.0017850256
0.045249041 0.090942629 0.0033792916
-0.086776957 0.097457811 0.0024246508
0.043385141 0.097295552 0.0021813535
-0.085789189 0.10255747 0.0026897939
-0.084589459 0.10435367 0.00071790465
0.041759457 0.10213466 0.0021785465
-0.085239299 0.10666901 0.0040752534
-0.083949141 0.10773491 0.0019507391
0.03845251 0.10773621 0.001930414
0.040328335 0.105592 0.003173827
-0.086072989 0.11331245 0.0031704856
-0.0835099 0.11142599 0.0015679202
0.03432237 0.11409301 0.0018668947
0.036149841 0.11175974 0.002979568
-0.090089798 0.119956 0.00430245
-0.088012971 0.11773394 0.002176062
0.028990334 0.119227 0.0013737393
0.032049302 0.1169511 0.0027466405
-0.088884234 0.12262447 0.0022943795
-0.03058045 0.1247915 0.00128498
-0.027778722 0.12460466 0.00093742576
-0.0247385 0.124904 0.00054900302
0.023195624 0.1238706 0.0021383469
0.026824681 0.121315 0.0028335385
-0.088479206 0.1274085 0.0022781962
-0.045831349 0.12939912 0.0023144002
-0.042602845 0.12855314 0.0022659719
-0.037443127 0.12760964 0.0025440098
-0.032795161 0.12602983 0.0026275758
-0.027334813 0.12525456 0.0036390456
-0.022386925 0.12595147 0.0026907651
-0.017688934 0.12705286 0.002445623
-0.012609025 0.12843637 0.0024633231
-0.0078185238 0.12945238 0.0022959362
-0.0025809282 0.12977751 0.00046408887
0.0025675669 0.12996601 4.4689659e-05
0.0075723403 0.12980418 0.00044692832
0.012664761 0.12913759 0.0020184694
0.017403537 0.12728402 0.0023555963
0.020842243 0.12555814 0.0026948617
-0.087496936 0.1328885 0.0022732296
-0.048140161 0.13238165 0.002419821
-0.0057172733 0.13021232 0.0042120498
-0.0021825826 0.13044958 0.0030097309
0.0026186213 0.13074814 0.0028024695
0.0071835131 0.13055435 0.0030328485
0.01052515 0.13024101 0.0035871649
-0.086338975 0.13757944 0.0028580492
-0.084102556 0.13795701 0.00057484227
-0.051058527 0.13821891 0.0013916827
-0.049536996 0.13622838 0.0031399811
-0.085734852 0.1404705 0.0036857701
-0.083148114 0.1427277 0.0020176158
-0.050870556 0.142129 0.0016092509
-0.048577096 0.14365271 0.0032829682
-0.082462668 0.14733367 0.0021725739
-0.045744717 0.14577056 0.002638008
-0.042985547 0.14776808 0.0027817036
-0.039285652 0.14948851 0.00089065603
-0.081716999 0.15131754 0.0033856833
-0.077951126 0.15317807 0.0016091017
-0.066077724 0.1545541 0.0023566624
-0.062467378 0.15377347 0.0019346124
-0.0590115 0.15395799 0.00054242002
-0.040842235 0.15114601 0.0045102467
-0.037719671 0.15225853 0.00251276
-0.034354236 0.15315367 0.00044316953
-0.075302303 0.15500399 0.00375308
-0.072306208 0.15575327 0.0023825704
-0.068668351 0.15540223 0.0025608677
-0.060381562 0.155605 0.0037690231
-0.057346337 0.15820037 0.0023128325
-0.041745655 0.158814 0.0039481916
-0.037185393 0.15721971 0.0036272726
-0.032562524 0.15740332 0.0018178585
-0.028786639 0.15900061 0.00071148376
-0.055289298 0.160933 0.00328411
-0.053022597 0.1626717 0.0022236244
-0.048465502 0.16413534 0.0047938097
-0.041333381 0.16234982 0.0038791373
-0.038605038 0.16210419 0.0011562561
-0.050065599 0.165567 2.7771801e-05
-0.047422707 0.16643646 0.0023838955
-0.042603862 0.16757303 0.0029401686
-0.038087532 0.16743416 0.0017224583
-0.040567599 0.171048 0.000226569
-0.037487339 0.1711894 0.00060075661
-0.071245804 0.034511883 0.0073670917
-0.067668095 0.033826418 0.0074338457
-0.062343322 0.033617686 0.0076074926
-0.057512466 0.033524949 0.0076557552
-0.052232228 0.033719357 0.0075285258
-0.04797411 0.034066524 0.0069488506
-0.042500876 0.034050878 0.0067605553
-0.037851691 0.033823311 0.0079099555
-0.033852924 0.033748638 0.0080661802
0.0025163919 0.034338441 0.0077089285
0.0066068997 0.034579031 0.00528599
0.023068629 0.034543153 0.0071072103
0.027130444 0.03475114 0.0075645153
-0.071760371 0.037084002 0.0079338541
-0.069428898 0.039567001 0.0096857799
-0.047225166 0.035739735 0.008485497
-0.042437915 0.035716534 0.0088799028
-0.0390753 0.0353444 0.0099017499
-0.027032599 0.038075522 0.0072751641
-0.022320369 0.038205754 0.0072473357
-0.017737361 0.03829116 0.0076834378
-0.012376675 0.038420014 0.0072585391
-0.0077940989 0.038505018 0.0076919794
-0.0022695628 0.037360791 0.0075118048
0.0070508998 0.035730697 0.0061758198
0.019272551 0.035716373 0.0058674254
0.021358639 0.03552264 0.0085121626
0.029469734 0.035194665 0.0062162732
0.032752816 0.035859082 0.0076683639
0.037557084 0.037545033 0.0078754527
0.041170977 0.0392612 0.0075936546
-0.070660301 0.041059501 0.0066952752
-0.067985885 0.043148313 0.007869482
-0.064354554 0.044863753 0.0094204955
0.044046979 0.04084608 0.0070772641
0.04726617 0.042627405 0.007540693
0.050324675 0.044692028 0.0077312523
-0.065256298 0.0459546 0.0056814398
-0.06228264 0.046350528 0.0077642053
-0.057643183 0.048716176 0.0078147156
0.052861128 0.047190167 0.0070319502
0.055514351 0.049372349 0.0077022174
-0.056140572 0.052858841 0.0075135618
-0.054800902 0.054717399 0.0096926298
0.057191111 0.052302904 0.0071877376
-0.06225761 0.05931953 0.0078098122
-0.057675865 0.057509322 0.0076747919
0.058916349 0.057094403 0.0070037651
0.060220502 0.059525952 0.0086646499
-0.07170029 0.0634958 0.0075042695
-0.067407228 0.061070476 0.0074479566
-0.064481534 0.06024937 0.006470337
0.059429977 0.062922336 0.0056333477
0.060378056 0.062306669 0.0081506781
-0.076567464 0.068256214 0.0077456096
-0.074508384 0.066019893 0.0074400473
0.058984194 0.067857437 0.0071283733
0.060134768 0.065524399 0.0088061634
-0.081546187 0.073440425 0.0075399219
-0.079116143 0.070765123 0.007156305
0.047793843 0.072863586 0.0075663822
0.05259892 0.072372735 0.0075877337
0.056807492 0.070981875 0.0072954092
-0.085394457 0.079163179 0.0080068251
-0.084064104 0.077229239 0.0073354752
0.04631925 0.077155821 0.0071917251
-0.086240038 0.082588747 0.0074918582
0.046129581 0.082730874 0.0071833394
-0.088366382 0.087452769 0.0074756709
0.045811221 0.087613262 0.0071764723
-0.088448606 0.092154309 0.007445802
0.044915568 0.0945867 0.0068369769
0.045438837 0.09213648 0.0072287749
-0.088520542 0.097573452 0.0074234023
0.044179145 0.097352862 0.007167242
-0.087338366 0.1029314 0.007397268
0.042332046 0.10217845 0.0071658818
-0.085926518 0.1076268 0.0073587396
0.039002977 0.10845231 0.0071499837
0.040483385 0.10615625 0.0075456183
-0.090742923 0.11460166 0.0083350269
-0.087619796 0.11208846 0.0071483818
0.034664579 0.11455159 0.0070737824
0.036523033 0.11201482 0.0075397254
-0.091218479 0.11771437 0.0072455066
-0.089801401 0.11587 0.0052840398
0.029706001 0.11974549 0.0056787399
0.032095876 0.11765748 0.0076250178
-0.091583535 0.12225188 0.0074496325
0.024043877 0.124375 0.0073199989
0.02736423 0.12195496 0.007586021
-0.091358759 0.12732883 0.0074890051
-0.089888349 0.1288265 0.00525937
-0.042342562 0.12911169 0.0073214984
-0.037469745 0.12809257 0.007633701
-0.032439128 0.12649381 0.0073904237
-0.027534558 0.12569591 0.007538836
-0.022336051 0.1267755 0.0075656851
-0.017367108 0.12807928 0.0076188059
-0.012474729 0.12929699 0.0075531914
-0.0097311102 0.1298355 0.0068108952
0.013972268 0.12961687 0.0072136885
0.017649222 0.12799028 0.0074012191
0.021813147 0.12581992 0.0075135697
-0.09070015 0.13228251 0.0077320556
-0.089600623 0.13294575 0.0052310154
-0.046656232 0.13253169 0.0072982218
-0.044605199 0.13034701 0.0086080097
-0.0071995254 0.13034426 0.0076250727
-0.0024775912 0.1310257 0.007643126
0.0025150592 0.1314026 0.0072781229
0.0076222112 0.13121824 0.0076243063
0.011461601 0.13043091 0.0076725576
-0.088285699 0.13718006 0.0073104315
-0.048749585 0.13707419 0.0074050445
-0.086372934 0.14228682 0.007478849
-0.084598899 0.14415534 0.00549621
-0.04922051 0.14243029 0.0074087158
-0.086635225 0.14739642 0.0077204932
-0.084486507 0.147376 0.0051484434
-0.04691796 0.14753219 0.0080014123
-0.044120174 0.148816 0.0061879922
-0.085944705 0.15078388 0.0080513507
-0.082873479 0.15265071 0.0073847314
-0.078692213 0.15440515 0.0073596826
-0.064415999 0.15499599 0.00586526
-0.046312083 0.15213791 0.0089844987
-0.042665109 0.15233533 0.0064761024
-0.076017179 0.15520413 0.0074608368
-0.07232441 0.15565257 0.0074536516
-0.067222975 0.15543571 0.0073191863
-0.062659919 0.15546037 0.007607433
-0.057388134 0.1576784 0.0075103324
-0.052542873 0.15859862 0.0087321876
-0.047224604 0.15721834 0.0084390333
-0.043175921 0.15691201 0.0063660014
-0.039403167 0.15610166 0.00551771
-0.052233446 0.16124551 0.0061778342
-0.047548164 0.16207474 0.0064599724
-0.043797959 0.162276 0.0056566498
-0.067137539 0.034303591 0.011984408
-0.06248777 0.033816732 0.012375721
-0.057714406 0.033616599 0.012902644
-0.053729173 0.033590075 0.011864187
-0.036043268 0.034165081 0.011279151
-0.032602321 0.033834577 0.012705586
-2.4352201e-05 0.034877401 0.0110061
0.0026187205 0.034288649 0.012681353
0.0055013071 0.033814032 0.013087466
0.024425874 0.034792401 0.012386926
0.027193442 0.034680028 0.012739
-0.070268899 0.036098152 0.0106367
-0.067949921 0.037564036 0.012642915
-0.064763799 0.039720301 0.0149016
-0.037135921 0.035649333 0.012226056
-0.026163328 0.037914257 0.012022157
-0.022518486 0.038076252 0.012617809
-0.017457746 0.038207486 0.012416108
-0.012388108 0.03832978 0.012641067
-0.0073143546 0.038418371 0.012384251
-0.0024783406 0.037068833 0.01254611
0.023015127 0.035715826 0.012637112
0.029546399 0.035017848 0.014141999
0.032575194 0.035593387 0.013140372
0.037431043 0.037364375 0.012684883
0.041579098 0.03940665 0.0125717
-0.066153295 0.042024739 0.01127976
-0.062810272 0.043111522 0.0128669
-0.05851027 0.044457484 0.01398667
0.043872524 0.040476725 0.01292775
0.047168631 0.042188745 0.012267938
0.050884157 0.04465618 0.01221572
-0.060182702 0.046059601 0.0101722
-0.056734484 0.046909686 0.011648818
-0.053554181 0.0480996 0.013258192
0.05372005 0.047060825 0.01220266
0.056101598 0.04940496 0.012191679
-0.05266374 0.052292377 0.012418272
0.057975259 0.052366924 0.012181886
-0.0655066 0.05976085 0.012401549
-0.062534265 0.058866419 0.012546473
-0.057907589 0.057645328 0.012455872
-0.05301467 0.055758834 0.0124454
0.059453893 0.05598871 0.012171911
0.060438883 0.05884726 0.01216455
-0.071817525 0.063418239 0.012361264
-0.067968823 0.060760085 0.012404336
0.060905691 0.062352125 0.012153148
-0.076980829 0.068326615 0.012551668
-0.074259669 0.065780215 0.012452283
0.059760552 0.069283918 0.01197435
0.060559936 0.066487521 0.01214836
-0.081540436 0.073475577 0.012536881
-0.079695903 0.07051222 0.012286512
0.048216149 0.07361383 0.012548162
0.052751791 0.073453933 0.012427112
0.057495754 0.071780175 0.01253481
-0.085643061 0.079213865 0.012509259
-0.083694458 0.077073656 0.012868483
0.046465479 0.077623479 0.012114829
-0.08668039 0.082658052 0.012491151
0.046124958 0.0827346 0.012172754
-0.088656701 0.087494686 0.01246492
0.045696061 0.087606795 0.012165239
-0.089403056 0.092236146 0.012442655
0.044818897 0.094349898 0.012495116
0.045346566 0.091702513 0.012017936
-0.089377515 0.097644463 0.012414025
0.044056538 0.097354718 0.01216096
-0.088534422 0.10250349 0.012263305
0.042243689 0.10218296 0.012160836
-0.086919688 0.10713243 0.012466658
0.038970053 0.10857877 0.012665271
0.040487856 0.10602928 0.011735471
-0.091297396 0.11382901 0.01257559
-0.08835867 0.1111917 0.012349641
0.034701567 0.114624 0.012530499
0.036539659 0.1120947 0.012436882
-0.092849568 0.11736334 0.012310406
0.032277033 0.11758596 0.012415651
-0.093440041 0.122088 0.012283649
0.024398822 0.1245244 0.01239486
0.027479963 0.12213718 0.012517476
-0.09294787 0.12753037 0.012253191
-0.042181611 0.12886822 0.0126017
-0.037542045 0.12791401 0.012383083
-0.032466989 0.12663163 0.012484031
-0.027476408 0.12583593 0.012506625
-0.022421032 0.12698701 0.012488801
-0.017613741 0.12828429 0.012601978
-0.013010446 0.129499 0.012495072
0.014083184 0.12973751 0.012720816
0.017488148 0.1283122 0.012442686
0.021818362 0.12611531 0.012369692
-0.091728322 0.13231432 0.012228173
-0.046326984 0.133095 0.012395453
-0.044579599 0.13059449 0.012298426
-0.010257234 0.13012867 0.013103701
-0.0074401465 0.13053636 0.012281549
-0.002456937 0.13125119 0.012363774
0.0026762369 0.1316662 0.012283194
0.0075908792 0.13146773 0.01263334
0.0117772 0.13056259 0.0123444
-0.090243697 0.13564815 0.012783958
-0.089191519 0.13790768 0.011901085
-0.048245601 0.13705581 0.012510218
-0.090337068 0.14333533 0.0141963
-0.088763006 0.14250082 0.011830083
-0.050469287 0.14385115 0.013379016
-0.049549643 0.14168122 0.011855515
-0.090538524 0.14762124 0.013280125
-0.089402035 0.1472313 0.010894257
-0.050830483 0.14764228 0.013404919
-0.049288429 0.14817871 0.011021629
-0.090220049 0.150157 0.013653301
-0.08752659 0.15169862 0.012350972
-0.082522355 0.15415254 0.012384909
-0.079500452 0.15495601 0.0117674
-0.052104622 0.15312409 0.012812522
-0.048940334 0.15229212 0.010743556
-0.0801768 0.155046 0.0137223
-0.077024013 0.1556005 0.012626741
-0.072589412 0.15610068 0.012580746
-0.067606509 0.15602559 0.012492071
-0.06237882 0.15592383 0.012645918
-0.057322349 0.15573302 0.012487153
-0.052898575 0.15615387 0.010991901
-0.048792999 0.155022 0.0100543
-0.065599397 0.0349763 0.0155159
-0.062299788 0.034154106 0.016946865
-0.05755619 0.033690982 0.017827451
-0.054130137 0.033385586 0.0175383
-0.035211649 0.034600802 0.017662549
-0.032831836 0.033995077 0.017666893
-0.0298032 0.034286998 0.016353101
0.0029252951 0.03441076 0.017322758
0.0066975784 0.034403358 0.018045034
0.0100949 0.034770999 0.018604999
0.023597017 0.034772735 0.018318316
0.026231598 0.034843951 0.01681675
-0.065809831 0.036386084 0.015604472
-0.062767982 0.03776256 0.017828714
-0.0596296 0.0391629 0.019804899
-0.035894264 0.035533462 0.017588234
-0.026980972 0.03730141 0.017824
-0.022747517 0.038035065 0.017729091
-0.017375812 0.03820565 0.01729605
-0.012584544 0.038274921 0.017804753
-0.0072622471 0.03839007 0.017255323
-0.002232101 0.03751225 0.017529886
0.00071166456 0.035463043 0.01825184
0.0189601 0.036125999 0.0191857
0.022055984 0.035794001 0.016778467
0.027958279 0.035401098 0.018577101
0.032374628 0.036391791 0.017752269
0.03749565 0.038123999 0.017506609
0.041225541 0.039567281 0.0165883
-0.061051603 0.041470066 0.016101601
-0.057515975 0.042627953 0.017410431
-0.053667817 0.044278946 0.018410955
0.043354776 0.040886637 0.018237237
0.047650065 0.042927463 0.017434254
0.05048595 0.044616174 0.016710874
-0.051563025 0.047294378 0.017281782
0.053055611 0.04682437 0.017380254
0.055742837 0.049342558 0.0171961
-0.050436091 0.052497428 0.017794494
-0.049894653 0.052216999 0.016644351
0.057726692 0.052345835 0.017185308
-0.065462701 0.0598015 0.0150426
-0.062124897 0.059324794 0.017257255
-0.058462739 0.058338188 0.017487057
-0.052542269 0.056450684 0.017781828
0.059344076 0.056673296 0.017535964
0.0602162 0.059064135 0.016338235
-0.071723618 0.063585579 0.017316414
-0.067576848 0.061234362 0.01748291
-0.064329572 0.060380731 0.018941933
0.059911549 0.061571501 0.0191849
0.060495023 0.062424205 0.016866492
-0.076754987 0.068622343 0.017324327
-0.073912553 0.066109918 0.018047178
0.059377875 0.068506308 0.01810251
0.060460404 0.066098839 0.016715383
-0.080987297 0.073532261 0.01739829
-0.079358764 0.070989057 0.01790547
0.047652178 0.073035263 0.017797453
0.05256651 0.073246628 0.017396258
0.057132572 0.071551211 0.017273718
-0.0855437 0.079238221 0.017001025
-0.083618477 0.077171274 0.017783988
0.046251569 0.07750842 0.0169142
-0.086409643 0.082658812 0.017483179
0.045831878 0.082586803 0.017256906
-0.088421799 0.08750426 0.017460635
0.045351692 0.087584578 0.017165935
-0.089578204 0.092272028 0.017435929
0.044648618 0.092904992 0.017473185
0.045144349 0.090739973 0.015912624
-0.08935526 0.097669959 0.017405594
0.043596156 0.097328089 0.017159401
-0.08854147 0.1023564 0.017373467
0.041662514 0.1021627 0.01716377
-0.086736612 0.10703995 0.017355829
0.038847663 0.1082291 0.01726748
0.040295474 0.10563 0.016666925
-0.091495089 0.11376507 0.017439742
-0.088508151 0.11135599 0.017424272
0.03471816 0.1143508 0.01769314
0.036518052 0.11184826 0.017485047
-0.093475439 0.11740332 0.017305467
0.029852131 0.119835 0.017384
0.032251999 0.11734065 0.017462868
-0.094321072 0.12212981 0.017277325
-0.031130448 0.12494349 0.01947055
-0.027845129 0.12451514 0.019084113
-0.0245806 0.124862 0.0196194
0.024219858 0.12448742 0.017582873
0.027357027 0.12200282 0.017534902
-0.093775056 0.12757038 0.017249607
-0.042858895 0.12780397 0.01768586
-0.037442803 0.12693566 0.017406873
-0.032622524 0.12599242 0.017311441
-0.027616989 0.12535389 0.016563468
-0.022580007 0.12628084 0.017165545
-0.017528728 0.12793778 0.017735694
-0.012699172 0.12934014 0.017595528
-0.0097021451 0.12994251 0.018364601
0.013864346 0.12960367 0.017630011
0.017653434 0.12799016 0.017596103
0.021931257 0.12591287 0.017343907
-0.092186399 0.13235387 0.017223459
-0.046349339 0.13266148 0.017795313
-0.044799648 0.13041601 0.015902949
-0.0105374 0.130025 0.0158825
-0.0073781665 0.13041963 0.017257022
-0.0026591218 0.13099407 0.017480124
0.0026023157 0.1314009 0.017496485
0.0077179335 0.13121493 0.017514307
0.011457881 0.1304858 0.017261073
-0.090699434 0.13714993 0.017195925
-0.0501104 0.138566 0.0193811
-0.048655666 0.13677783 0.017080512
-0.091478899 0.14265636 0.017170105
-0.051301666 0.14265317 0.017548494
-0.049857147 0.140136 0.015895799
-0.091372944 0.14746274 0.017145405
-0.052023724 0.14792518 0.017522063
-0.09079992 0.15020719 0.017128099
-0.088136792 0.15226252 0.017621439
-0.083136953 0.1543469 0.017683761
-0.055739876 0.15458074 0.017823387
-0.053348623 0.15236105 0.017224766
-0.080766968 0.15508066 0.0164409
-0.077553488 0.15574308 0.017550047
-0.072266869 0.15627527 0.01754437
-0.0674496 0.15629201 0.017453292
-0.062343288 0.15602633 0.017689535
-0.05836891 0.15549698 0.017200071
-0.061903022 0.034368072 0.022615338
-0.05767411 0.033907931 0.022542479
-0.053544551 0.033738308 0.02284747
-0.035591949 0.034474175 0.02264625
-0.032984864 0.034237791 0.022645393
0.00419319 0.034805298 0.02100125
0.0077533568 0.034598377 0.022063216
0.012399906 0.034624409 0.022835402
0.017688092 0.034693178 0.02294438
0.021539301 0.0348824 0.021870913
-0.062414248 0.037489157 0.022696165
-0.059662051 0.03917985 0.020716101
-0.037078574 0.035315424 0.023383826
-0.030151799 0.036080901 0.023674101
-0.027008584 0.037832174 0.02274975
-0.022445183 0.038114592 0.02246053
-0.017466208 0.038269456 0.022509677
-0.012488814 0.038373232 0.022461984
-0.0075263008 0.038494527 0.022533806
-0.0023973335 0.038500369 0.022414459
0.0023420325 0.036912501 0.022655187
0.00589388 0.035329167 0.023897767
0.0194741 0.035184499 0.020139201
0.0235791 0.035355065 0.023245601
0.027611367 0.03644783 0.022477416
0.03242838 0.037985489 0.022979394
0.036780585 0.039152544 0.022362635
0.040304199 0.0398794 0.0201445
-0.061282754 0.041063059 0.023847414
-0.057801791 0.042776812 0.022395341
-0.054171775 0.044577099 0.02143405
0.038995579 0.040478077 0.023719702
0.04273954 0.042020917 0.022979436
0.046632133 0.043641765 0.02202093
-0.056240797 0.045150749 0.0241811
-0.052649293 0.047598556 0.022659045
0.048994929 0.045885328 0.023564901
0.052374288 0.047946289 0.022030499
-0.051684879 0.052530862 0.022548411
0.054255925 0.051383525 0.023762073
0.056453474 0.052587546 0.021872001
-0.060228098 0.059992 0.021311199
-0.05760622 0.059291206 0.021493554
-0.052801054 0.057272837 0.02291769
0.057956744 0.057338268 0.022382081
-0.070774384 0.064126506 0.020817161
-0.067473449 0.062946253 0.022453498
-0.062747814 0.061232015 0.022503594
-0.058755603 0.060715284 0.023845358
0.058563761 0.062741123 0.0225798
-0.076095112 0.069373585 0.022210943
-0.072814338 0.066953287 0.022721622
-0.069934197 0.065127298 0.023648599
0.044551801 0.069147997 0.024650799
0.046427801 0.069245562 0.0242033
0.053640097 0.069286779 0.024531951
0.057627749 0.067765325 0.022133825
-0.080328047 0.074461669 0.02187915
-0.078443147 0.072056882 0.022645447
0.044508331 0.072903901 0.023818946
0.047116067 0.071728282 0.021663381
0.052485626 0.071290635 0.022240069
0.056055874 0.070949405 0.020895924
-0.082350962 0.077295721 0.022396557
0.044674736 0.077610068 0.024058834
0.045526393 0.077657439 0.02165512
-0.085654311 0.083430596 0.021746881
-0.084253728 0.081546038 0.02338811
0.044717614 0.082923971 0.023731241
0.045401655 0.082088061 0.021395113
-0.087365054 0.087568775 0.022730468
0.044589855 0.087788336 0.022706918
0.045148402 0.086868756 0.0206622
-0.088627391 0.092502974 0.022531759
0.044030324 0.092427582 0.022159658
-0.088381961 0.09748584 0.022433033
0.042797837 0.097285673 0.022161467
-0.086782508 0.10283946 0.022706
0.0398155 0.1041805 0.023667701
0.040945441 0.10188867 0.022000037
-0.085606389 0.10738778 0.021133667
-0.084637761 0.10766085 0.023636801
0.038284749 0.10777377 0.022411266
-0.090884998 0.11443 0.021912925
-0.087664098 0.11213872 0.022284444
-0.084955499 0.110375 0.0243559
0.034180313 0.11417938 0.022875337
0.036053684 0.11152491 0.022317559
-0.092866957 0.11726065 0.022478836
0.029464597 0.11938399 0.023176784
0.031971671 0.11699835 0.022348806
-0.094364524 0.1221544 0.022283867
-0.042600527 0.124145 0.023352101
-0.037228826 0.12444326 0.023728915
-0.032255895 0.12365568 0.022688141
-0.027537493 0.12296461 0.022498252
-0.022879669 0.12402139 0.02318291
0.023362361 0.12417017 0.022892488
0.026938733 0.12160289 0.022399779
-0.093890488 0.12760931 0.022255499
-0.045772474 0.12773691 0.023165345
-0.043155305 0.12569156 0.021140972
-0.037670612 0.12572022 0.021102455
-0.034632698 0.1251895 0.02114635
-0.0217278 0.125487 0.021013999
-0.017429976 0.12676345 0.022384848
-0.012397394 0.12849271 0.022489583
-0.0076877475 0.12947965 0.023381246
-0.00296343 0.12974566 0.024425967
0.00188261 0.12993599 0.0247306
0.0081360238 0.12971 0.024361232
0.012913617 0.12903869 0.022572486
0.017396497 0.12707105 0.02250733
0.021185745 0.12566923 0.021912467
-0.092031553 0.13238861 0.022225952
-0.047508582 0.13280198 0.022349032
-0.0065920777 0.1301716 0.021088261
-0.0021903517 0.13037036 0.022034001
0.0026434143 0.13055593 0.022434337
0.0073548839 0.13049328 0.021778464
0.01050185 0.1301495 0.021390151
-0.090424098 0.13709606 0.021760117
-0.0896945 0.137531 0.023945075
-0.05086603 0.13745162 0.02292997
-0.04939916 0.13593581 0.021568919
-0.091131531 0.14268675 0.02216333
-0.05262313 0.14238206 0.022397252
-0.091282159 0.14754887 0.02228814
-0.089290403 0.14981399 0.024684999
-0.053139009 0.14778081 0.022404343
-0.090354763 0.15021966 0.021119932
-0.087836631 0.15174757 0.022518095
-0.082734399 0.15408607 0.022386158
-0.079653546 0.15495449 0.02344875
-0.056654263 0.15448274 0.023008341
-0.0538196 0.15193956 0.02241013
-0.080407202 0.155064 0.0209566
-0.077168956 0.15554145 0.022293678
-0.072519489 0.15609075 0.022580644
-0.067571051 0.15623012 0.022496231
-0.062451608 0.15588471 0.022456339
-0.058529925 0.15527172 0.021568073
-0.0655149 0.034827903 0.02886875
-0.062317032 0.034325343 0.027482359
-0.057467584 0.034167334 0.0274643
-0.052447472 0.034182966 0.027570661
-0.047931101 0.034045901 0.02823521
-0.042643722 0.034082707 0.028190706
-0.037210573 0.034204271 0.027897025
-0.033793818 0.034504283 0.027315216
0.0090043843 0.034914702 0.025507249
0.012869366 0.034776792 0.027222434
0.016995447 0.034848563 0.02686559
-0.065857761 0.037546035 0.02835965
-0.064404406 0.036991857 0.025795722
-0.031221237 0.036561161 0.027696338
-0.027525935 0.038076412 0.027820146
-0.02241748 0.038322568 0.02736501
-0.017488558 0.038496412 0.027707128
-0.012318154 0.038555123 0.027190624
-0.0075659729 0.038697951 0.027760776
-0.0023691719 0.038802013 0.027205246
0.0026428578 0.038879462 0.027433427
0.0073077562 0.037327427 0.027518833
0.010971333 0.035505816 0.028694235
0.019210199 0.035083033 0.028039666
0.022592954 0.036160469 0.027439145
0.027296072 0.03824668 0.027037064
0.031789601 0.03943735 0.02608775
-0.06506265 0.04078605 0.0291123
-0.062986933 0.042497426 0.027624473
-0.059483301 0.0440844 0.0256893
0.029188134 0.040839031 0.029424867
0.032579087 0.04218027 0.028417839
0.037235718 0.042443946 0.027857712
0.041806038 0.043530319 0.026839241
0.045655798 0.044908602 0.0258493
-0.060444299 0.045601301 0.029680699
-0.057203092 0.046413194 0.027766556
-0.05367991 0.048597526 0.027287463
0.042894192 0.045790151 0.029067256
0.04733786 0.047674693 0.027502757
0.050788574 0.049290724 0.025768476
-0.052205145 0.052494735 0.027643744
0.049302865 0.052108154 0.029236866
0.052286517 0.052726924 0.027103519
0.0551094 0.0539301 0.0250409
-0.052200802 0.057651471 0.027676817
0.053069506 0.057250015 0.028492142
0.055717148 0.058121268 0.025953675
-0.06628833 0.064318962 0.026434226
-0.062405568 0.063265599 0.027345305
-0.05782098 0.062177449 0.027696207
-0.053667638 0.061214384 0.028331298
0.04219817 0.062924691 0.028989067
0.047372364 0.063305251 0.029467374
0.052635331 0.062633716 0.028700331
0.055943321 0.062873445 0.026323952
-0.075203903 0.069697797 0.025624899
-0.072200082 0.068285257 0.027289685
-0.06812001 0.06605038 0.027846245
-0.064703599 0.065304399 0.029873701
0.042633384 0.067464814 0.027624328
0.047652796 0.06704323 0.026741764
0.052427672 0.067147717 0.026530888
0.055692401 0.066599898 0.025399601
-0.077107206 0.072631635 0.027287912
-0.074285254 0.070465103 0.028655838
0.042993817 0.072427623 0.027275143
-0.081490293 0.078224942 0.027424499
-0.079216406 0.076046921 0.028101573
0.043111406 0.077198721 0.02731769
-0.08369872 0.082375042 0.027535781
0.043283913 0.082671352 0.027280219
-0.085853964 0.088290587 0.02636298
-0.084273241 0.087359808 0.028514398
0.042660173 0.0877942 0.027545374
-0.086324491 0.092410773 0.026988683
-0.084521227 0.092504025 0.029424699
0.04215439 0.0924505 0.027156217
-0.086272955 0.097150072 0.026788874
-0.084509499 0.097241104 0.029265774
0.039537966 0.098753043 0.028765917
0.041037269 0.097222403 0.026887419
-0.085709959 0.10151801 0.026094478
-0.083588012 0.10296436 0.028295288
0.038579989 0.10286269 0.027675129
0.0402348 0.101386 0.0251818
-0.082703516 0.1072845 0.027373651
0.034820952 0.109334 0.0285445
0.03683538 0.10736475 0.027099496
-0.087365411 0.11322727 0.027144611
-0.08374685 0.11078451 0.02808499
0.033182636 0.11259154 0.027712196
0.035734851 0.1105535 0.02577205
-0.091446958 0.11728431 0.027210435
-0.089827597 0.115267 0.0280832
-0.046775378 0.11942899 0.029142251
-0.043001652 0.11933075 0.029655701
-0.032247249 0.11940383 0.029449483
-0.028140241 0.1197184 0.0290669
0.027890196 0.11823756 0.02798409
0.030803451 0.11635719 0.026774812
-0.09309376 0.12215655 0.027288416
-0.04686198 0.12244143 0.027570184
-0.042526845 0.12154391 0.027054483
-0.037464686 0.12211814 0.02751198
-0.032780256 0.12125853 0.027065562
-0.027212448 0.12118142 0.02676654
-0.022263234 0.12254359 0.027423495
-0.018057458 0.12387134 0.028014265
-0.0147356 0.124887 0.0290085
0.0179641 0.12416599 0.028439632
0.022674628 0.12256151 0.027544936
0.0262702 0.1207096 0.026215399
-0.092872068 0.12761994 0.027256232
-0.047533732 0.1275949 0.027505582
-0.016404549 0.12573875 0.025842424
-0.012373121 0.12650165 0.027518723
-0.0073902565 0.12782438 0.02766268
-0.0024246594 0.12847316 0.027535446
0.002533898 0.12857449 0.02739075
0.0074683949 0.12829444 0.027638471
0.01246578 0.12737586 0.027490547
0.016773807 0.12598254 0.026502954
-0.09119349 0.1324044 0.027225314
-0.05072983 0.13401957 0.028339613
-0.049047172 0.13233128 0.026921649
-0.089300454 0.13720651 0.027196914
-0.05274079 0.13746059 0.027722629
-0.090701111 0.14286283 0.026670665
-0.089842454 0.142169 0.029129859
-0.0556635 0.14099599 0.0299986
-0.053964082 0.14254804 0.027301632
-0.090631463 0.14663601 0.025941212
-0.08849787 0.14834309 0.028077859
-0.055545647 0.14832184 0.029018098
-0.054455314 0.1476364 0.026928991
-0.086522803 0.15116921 0.026780099
-0.082356386 0.15296127 0.027536364
-0.077462085 0.15436274 0.027987143
-0.072163746 0.15472376 0.029302776
-0.066783868 0.154797 0.029597634
-0.062108848 0.15466926 0.028631838
-0.057141777 0.15344132 0.027716713
-0.054296333 0.1513055 0.026221683
-0.076051168 0.15524034 0.025871402
-0.07238394 0.155404 0.026919264
-0.067529365 0.15550914 0.027098965
-0.062869273 0.15533499 0.026354019
-0.065631054 0.034811452 0.033211201
-0.062498286 0.034372695 0.032407731
-0.057389174 0.034364425 0.032401633
-0.052520428 0.034447797 0.03282541
-0.047293957 0.034520421 0.03224225
-0.04244775 0.034480359 0.032673262
-0.03755302 0.034410596 0.032383732
-0.034667451 0.034757301 0.032817502
0.013516422 0.03482591 0.03233248
0.016117932 0.034869831 0.032423951
-0.06641636 0.037503473 0.032367557
-0.031842716 0.037226819 0.032032099
-0.027443159 0.038485862 0.032857463
-0.0223237 0.03862856 0.032127399
-0.017469194 0.038793422 0.032841939
-0.012541986 0.038842492 0.032012291
-0.0075408095 0.039011817 0.032889333
-0.0025888609 0.039104093 0.03202372
0.0022987691 0.039333105 0.032693509
0.007799644 0.038557522 0.032065708
0.010871567 0.035928518 0.031908799
0.018443784 0.035102401 0.0324337
0.022736328 0.037398588 0.032611713
0.025731351 0.03933765 0.031324949
-0.065394178 0.041196875 0.033230025
-0.064187124 0.043244351 0.03245749
0.027794087 0.042198885 0.032436136
0.030768149 0.044594802 0.030976851
0.038447734 0.044635337 0.0300589
-0.061630603 0.045977518 0.03301255
-0.058098331 0.047558192 0.032446902
-0.053524978 0.0491325 0.03265962
0.029468801 0.046233602 0.034416299
0.032485735 0.047451176 0.03185058
0.037493806 0.047695197 0.031381786
0.042146742 0.048276402 0.031606261
0.045832101 0.049220432 0.030332366
-0.051284771 0.052074261 0.032337319
-0.049662322 0.0535037 0.034356274
0.033531368 0.05190976 0.033620168
0.037156884 0.053031731 0.031973749
0.042486466 0.05275856 0.032433312
0.046918008 0.052685507 0.031313293
-0.050880533 0.057980318 0.031764671
-0.049676385 0.057247568 0.03390285
0.037684277 0.057430077 0.032406453
0.042499404 0.057648443 0.031476419
0.047471095 0.057573926 0.03144642
0.050416142 0.05788482 0.03020202
-0.061303861 0.064577937 0.030865401
-0.057098396 0.063976571 0.031747092
-0.052445922 0.063246123 0.032775141
-0.0496048 0.061399803 0.034419831
0.038749654 0.062171277 0.03286403
0.041365471 0.062268045 0.030371202
0.047650695 0.061497603 0.030524585
0.050514098 0.0610459 0.030169901
-0.070887454 0.069442824 0.0311286
-0.067390159 0.068179876 0.03230362
-0.062848769 0.066508226 0.032987554
-0.057995815 0.065697826 0.03406848
0.039194774 0.067912646 0.033756316
0.04042621 0.06780158 0.031143038
-0.076042019 0.073868237 0.030908352
-0.072840504 0.072244331 0.032822672
-0.069291063 0.070672333 0.034199465
0.039192587 0.072626144 0.033796385
0.040969357 0.072536722 0.031073434
-0.080548704 0.0789662 0.0306236
-0.077571087 0.077758595 0.03258333
-0.074244402 0.075660899 0.0347079
0.039367858 0.077165648 0.033913735
0.041063126 0.077264942 0.031247802
-0.081395656 0.082801633 0.031938329
-0.079042777 0.081354968 0.034048453
0.039476156 0.083022229 0.034077313
0.040994886 0.082674257 0.031709101
-0.081773475 0.087863564 0.032480497
0.039221391 0.087434024 0.033962134
0.040855546 0.087494582 0.031255268
-0.081914388 0.092605703 0.032465301
-0.07948105 0.093355551 0.034949049
0.039032493 0.092285931 0.033243366
0.040262882 0.091880761 0.030941939
-0.081946202 0.097246841 0.032197021
-0.07945808 0.09780772 0.034506302
0.037734382 0.0974361 0.032563377
0.040094901 0.095337003 0.0300286
-0.081149146 0.10233299 0.031239258
-0.078459673 0.1031145 0.033647373
0.033866592 0.10341658 0.033869341
0.036148123 0.102242 0.031730972
-0.080553651 0.10833821 0.031374358
-0.078756258 0.10729349 0.033215713
0.032557033 0.10747128 0.032638635
0.035361599 0.106017 0.0302164
-0.090889551 0.11455549 0.033913299
-0.087661728 0.11257153 0.032609787
-0.083109565 0.11066932 0.032568146
-0.051485639 0.113915 0.034823
-0.04749864 0.11388739 0.034625199
-0.042497985 0.113906 0.0346779
-0.037062831 0.11349472 0.034386773
-0.032841768 0.11366317 0.034432601
-0.0290034 0.113903 0.034850203
0.02443555 0.11402149 0.034630753
0.028403047 0.1127084 0.033333786
0.031249924 0.111587 0.031369463
-0.091957606 0.1171836 0.032218598
-0.051944915 0.11705042 0.033729181
-0.047947131 0.11722928 0.031888697
-0.042375267 0.11680119 0.032273572
-0.037494544 0.1173238 0.031721339
-0.032547608 0.11687887 0.03192465
-0.027378239 0.11715131 0.032127216
-0.022891391 0.1181275 0.033386927
-0.018503001 0.119546 0.034441799
0.0175885 0.1194468 0.034417182
0.022964804 0.11777682 0.032874972
0.026943007 0.11612999 0.031436868
-0.092666179 0.12218051 0.032278966
-0.050744444 0.12261888 0.033599589
-0.049210798 0.12257501 0.031387065
-0.021994149 0.120798 0.030938799
-0.017357659 0.12202868 0.031758305
-0.012818764 0.12315335 0.032756872
-0.0074687796 0.12369861 0.033908788
-0.0030248321 0.12391291 0.033993047
0.0027095033 0.1236483 0.033955198
0.007428397 0.12375867 0.033826485
0.012460259 0.12293362 0.033239651
0.01715171 0.12164038 0.03227143
0.021381235 0.12113522 0.031242298
-0.091913953 0.12762496 0.032248933
-0.051483788 0.12783338 0.033440195
-0.049226724 0.12704113 0.030980149
-0.010870675 0.12520675 0.0306063
-0.0074029253 0.12540162 0.031378426
-0.0021859193 0.1260896 0.031404231
0.0023677228 0.12613222 0.031355344
0.0075207679 0.12592073 0.031244991
0.01224985 0.12546699 0.030656999
-0.09056066 0.1317365 0.0322273
-0.089835659 0.13379321 0.032215618
-0.055800699 0.13395 0.034236051
-0.052689388 0.13244472 0.032290872
-0.089596167 0.13722914 0.032198142
-0.060604274 0.138834 0.034325175
-0.057155989 0.13763358 0.032758027
-0.05400154 0.13589081 0.031032419
-0.089076146 0.14264956 0.032239471
-0.057732746 0.14244001 0.032332812
-0.0869563 0.14741464 0.032127857
-0.084221274 0.14926575 0.033527426
-0.057427 0.14735533 0.032349084
-0.082380608 0.15093364 0.032425407
-0.077447586 0.15266521 0.032699339
-0.072225079 0.15355501 0.032489449
-0.06737747 0.15373445 0.03239543
-0.062326208 0.15336227 0.03259594
-0.058228876 0.15205619 0.032252695
-0.065328397 0.034912899 0.036661901
-0.062486831 0.034527209 0.037594471
-0.057383914 0.034425419 0.037162386
-0.052538611 0.034523424 0.037865166
-0.047497522 0.034576468 0.037277486
-0.042631976 0.034542259 0.037468161
-0.037601288 0.034500375 0.037699018
-0.03359326 0.034434479 0.037904941
-0.00064252299 0.034791298 0.039867699
0.0035138051 0.034827325 0.038441427
0.00748858 0.034700461 0.038199984
0.012496031 0.034708079 0.037240326
0.015907859 0.03488826 0.037059259
-0.066081963 0.036982894 0.037295207
-0.064726628 0.037833732 0.039115265
-0.026966982 0.038795102 0.036855798
-0.022395765 0.03901672 0.03700918
-0.017555745 0.03920285 0.037842687
-0.012774933 0.039257783 0.037105214
-0.0080082016 0.03936414 0.036846127
-0.0027082446 0.038844828 0.036280416
0.018207924 0.035535142 0.038076777
0.022113042 0.037991948 0.037101176
-0.065351114 0.040898241 0.036347784
-0.063723095 0.043115336 0.037820145
0.024158057 0.041971635 0.038511518
0.026227217 0.043588024 0.036706537
-0.061257549 0.046285611 0.037166275
-0.05699826 0.047931649 0.038003631
-0.05232789 0.048656691 0.037817355
-0.047502067 0.04844645 0.039025199
-0.042835731 0.048980732 0.039624166
-0.037494909 0.04850547 0.039510708
-0.034011375 0.049341001 0.039248973
0.024082573 0.047701698 0.039334245
0.027555302 0.047827084 0.037208144
0.030569 0.0491561 0.035174999
-0.050445698 0.05041765 0.03594755
-0.047301795 0.052675914 0.037142206
-0.042507879 0.052712489 0.039271515
-0.037485119 0.052684296 0.039004084
-0.032466907 0.052584682 0.037763927
-0.027567394 0.053545084 0.037732072
0.024537049 0.0505279 0.039636549
0.027986495 0.052244499 0.038714875
0.031775363 0.053419508 0.036746342
-0.047086366 0.057363518 0.036996193
-0.043145757 0.057135243 0.039581195
-0.036891125 0.05723362 0.039532434
-0.032493193 0.05750465 0.037858408
-0.027270015 0.057469986 0.037816346
0.03295945 0.05756392 0.038215704
0.035587933 0.058697533 0.036095437
-0.050487299 0.064657599 0.035197798
-0.047366079 0.062199727 0.037129331
-0.044514637 0.0618353 0.039558839
-0.032277744 0.062361591 0.0387903
-0.027658364 0.062502094 0.038292479
0.0339799 0.062193677 0.039138038
0.036406811 0.062929444 0.036739312
-0.062043477 0.069062427 0.036247436
-0.057302982 0.068161607 0.036960453
-0.052508611 0.067217298 0.0367731
-0.047787748 0.066965446 0.038615625
-0.031215329 0.067284033 0.039315101
-0.028322211 0.067309104 0.039096139
0.033952266 0.067345165 0.039371833
0.036712229 0.067636736 0.036895853
-0.071323484 0.074071966 0.036109265
-0.067184851 0.072549485 0.037058763
-0.062727228 0.071934082 0.03850475
-0.057574492 0.071206458 0.039370578
-0.052376971 0.070808224 0.039201487
-0.049405862 0.070815936 0.039550435
-0.030497 0.0710328 0.039791301
-0.0291641 0.070796572 0.039743666
0.034049213 0.072067276 0.039550602
0.036467269 0.072257437 0.037178695
-0.075494938 0.078554995 0.035351768
-0.072178796 0.077377468 0.037441175
-0.06840454 0.076754712 0.039230473
0.034744252 0.07748802 0.039722703
0.036894437 0.077537075 0.037302501
-0.077008381 0.082962051 0.036640897
-0.073474035 0.082116365 0.038879283
0.034781799 0.082871243 0.039813727
0.036971547 0.082717575 0.037011635
-0.077648275 0.087488674 0.037339419
-0.074262053 0.086735293 0.039816447
0.034843002 0.086243697 0.0399362
0.036735196 0.087523513 0.0373974
-0.077252246 0.092053168 0.037511703
-0.0745297 0.093500748 0.0398851
0.034444001 0.09291482 0.039406247
0.036599122 0.092097446 0.037056521
-0.076962255 0.097361743 0.036749598
-0.073771633 0.098182425 0.039125822
0.033070602 0.097897142 0.038189743
0.035680026 0.096822046 0.035952561
-0.07621026 0.10256851 0.035927281
-0.072816186 0.10237867 0.038051177
-0.068332501 0.10371417 0.039419349
-0.040470101 0.104257 0.039923601
-0.037500579 0.1042224 0.039657518
0.024333999 0.1047095 0.039733753
0.028174002 0.10343643 0.038642909
0.03172202 0.10242476 0.036536597
-0.081004098 0.10964657 0.037298568
-0.077478468 0.10840044 0.037390441
-0.072408438 0.10766409 0.03783188
-0.067600682 0.10771686 0.038176876
-0.062627606 0.10819368 0.038617142
-0.057497956 0.10840854 0.038832556
-0.052372266 0.10825074 0.038809419
-0.047856934 0.10843028 0.038976405
-0.04211602 0.10845271 0.038633343
-0.037494875 0.10768615 0.037928019
-0.032685913 0.10808635 0.038528956
-0.027961563 0.10882309 0.038953211
-0.024005201 0.10989 0.039718702
0.0094939303 0.109876 0.0399119
0.011499934 0.10987333 0.039762568
0.017930044 0.10945971 0.039560732
0.022806888 0.10781335 0.039057162
0.027541462 0.10742935 0.037351176
0.0304727 0.106767 0.035465751
-0.090893194 0.11428812 0.036976341
-0.087616026 0.11183322 0.037505809
-0.083674669 0.11035678 0.037904393
-0.067368597 0.11081971 0.038741671
-0.062485233 0.11241739 0.037380673
-0.057500623 0.11252373 0.036229752
-0.052748639 0.11219049 0.036154382
-0.04749956 0.11187179 0.03641516
-0.042491384 0.1118681 0.036253382
-0.037865698 0.11165913 0.035819273
-0.032286488 0.11176568 0.035965536
-0.027278593 0.11234001 0.036335506
-0.022519756 0.11266847 0.038230117
-0.017722312 0.11347456 0.039103579
-0.0139974 0.114126 0.039636649
0.008931607 0.11308086 0.039622467
0.012497501 0.11265054 0.03883354
0.017496001 0.11260434 0.037980553
0.022350993 0.11236499 0.036575619
0.026307825 0.11090951 0.036022026
-0.09256018 0.11735063 0.037427247
-0.061151866 0.11584767 0.038684614
-0.057191957 0.11736586 0.037776507
-0.053984884 0.1187607 0.035911772
-0.021688482 0.1158685 0.036101218
-0.017326301 0.11715652 0.036680721
-0.01249723 0.11758746 0.038009696
-0.0074909325 0.11829521 0.038419973
