ply
format ascii 1.0
comment PCL generated
element vertex 761
property float x
property float y
property float z
element camera 1
property float view_px
property float view_py
property float view_pz
property float x_axisx
property float x_axisy
property float x_axisz
property float y_axisx
property float y_axisy
property float y_axisz
property float z_axisx
property float z_axisy
property float z_axisz
property float focal
property float scalex
property float scaley
property float centerx
property float centery
property int viewportx
property int viewporty
property float k1
property float k2
end_header
-0.12212549 0.13101205 0.3392832
-0.12537436 0.13721077 0.33900154
-0.12185726 0.1202145 0.34694892
-0.12954207 0.12860648 0.34972587
-0.12317494 0.12776805 0.34459463
-0.135059 0.13495091 0.34743991
-0.12722178 0.1370192 0.34437788
-0.13578333 0.13938466 0.34617028
-0.13198745 0.14099093 0.34304488
-0.12367181 0.11098581 0.35860476
-0.12154306 0.11162383 0.35941109
-0.12508047 0.11608786 0.35563689
-0.12024861 0.11843228 0.35469943
-0.13004272 0.12510201 0.35522562
-0.12187819 0.12848678 0.3546595
-0.13648288 0.13310187 0.35471639
-0.12791735 0.13450101 0.35445848
-0.044814311 0.021238936 0.36952177
-0.040831417 0.021595556 0.3699021
-0.044857766 0.025691746 0.36992642
-0.031748086 0.039923787 0.36937004
-0.023479031 0.043233901 0.36944851
-0.017751219 0.04640194 0.3696368
-0.042494293 0.044245031 0.36829591
-0.03528003 0.045488048 0.36645004
-0.026019452 0.049306691 0.3671912
-0.017416876 0.053696152 0.36899862
-0.011625237 0.055078734 0.36997789
-0.047647256 0.051375456 0.36606514
-0.038988508 0.054439265 0.36306876
-0.029921008 0.058597516 0.36478364
-0.020608742 0.062271219 0.36725363
-0.014031042 0.06643267 0.36923248
-0.058132183 0.058716387 0.36822802
-0.05232583 0.059661638 0.36351633
-0.042899206 0.063580871 0.36143556
-0.033780053 0.067800827 0.36319521
-0.02448645 0.071498431 0.36558744
-0.017136784 0.074186042 0.3687613
-0.060308259 0.064997934 0.36837173
-0.056212183 0.069032259 0.3638581
-0.046739638 0.073267877 0.36155975
-0.037643053 0.076990314 0.36304536
-0.028237397 0.080630198 0.36626711
-0.021341367 0.083345026 0.36913484
-0.05704245 0.076350898 0.36699578
-0.049493343 0.081151724 0.36607578
-0.040662739 0.084956326 0.36660117
-0.031478815 0.087440111 0.36802328
-0.024538757 0.088249587 0.36961827
-0.12375425 0.11006053 0.36493012
-0.11959828 0.11158095 0.36582366
-0.12681136 0.11571176 0.3645938
-0.11776872 0.11890065 0.36478981
-0.13403904 0.12340098 0.36476195
-0.12261034 0.12877536 0.36528999
-0.1344385 0.13036479 0.36417431
-0.12870879 0.13195382 0.3639006
-0.053642292 0.016564213 0.3759751
-0.045993622 0.018391093 0.3741793
-0.036616668 0.023168478 0.37395948
-0.027704712 0.027146667 0.37499982
-0.018556608 0.031184789 0.37600073
-0.0096535329 0.035560153 0.37680313
-0.0024365226 0.039419297 0.37819514
-0.055051815 0.022988785 0.37758657
-0.049517665 0.027913395 0.3743265
-0.04070092 0.031920206 0.37215289
-0.031098992 0.034783199 0.37211385
-0.021393485 0.038285214 0.37311536
-0.012469401 0.043276634 0.37397963
-0.0034688353 0.047259856 0.37600711
0.0017342522 0.051894095 0.37870917
-0.050222933 0.042647623 0.3795867
-0.045894254 0.040102642 0.37467164
-0.013929792 0.050218835 0.37049091
-0.0073426752 0.056690782 0.37178615
0.00093771768 0.060047224 0.37624472
-0.054196976 0.049328785 0.37655452
-0.050926164 0.047306884 0.37293962
-0.009333143 0.065526493 0.3710843
-0.0020405487 0.069337778 0.37577081
-0.080647007 0.052900229 0.37955156
-0.07601992 0.054809667 0.3799113
-0.059546862 0.056625389 0.3749378
-0.012590341 0.076154567 0.37112293
-0.0055612382 0.078782998 0.37517866
-0.00092614966 0.081963293 0.37918669
-0.083763488 0.057904117 0.37866139
-0.074609093 0.061753411 0.37851736
-0.064652607 0.06526541 0.37507978
-0.061586659 0.070851125 0.37041509
-0.016781554 0.085496791 0.37170309
-0.0094382446 0.087979116 0.37613523
-0.0044018328 0.089661025 0.37983742
-0.086946495 0.067153327 0.37846789
-0.07848902 0.071019322 0.37797162
-0.068882979 0.07382983 0.37660953
-0.060568679 0.078113437 0.37410292
-0.051460665 0.084629729 0.37326488
-0.042020321 0.08934702 0.37306052
-0.03242413 0.091973871 0.37378368
-0.022502623 0.093146674 0.37464595
-0.014219321 0.096370086 0.37810537
-0.087611981 0.074522093 0.37923717
-0.081082374 0.078574359 0.37908557
-0.072224334 0.082384944 0.37875789
-0.063193314 0.08701963 0.37737951
-0.05452558 0.091625318 0.37754953
-0.045073327 0.095155723 0.37727621
-0.036075026 0.098232865 0.37870634
-0.025542611 0.099940613 0.37845516
-0.018626947 0.10188714 0.37947306
-0.061754886 0.093495883 0.37949204
-0.052472223 0.097452909 0.37935871
-0.047714859 0.10060124 0.37917963
-0.03934003 0.10365327 0.37979114
-0.12441237 0.10901453 0.37460831
-0.11757847 0.11097375 0.3749277
-0.1287154 0.11498059 0.37459064
-0.11640905 0.11870277 0.37482163
-0.13353419 0.12392993 0.37470138
-0.1234419 0.12720656 0.37480164
-0.084041104 0.14890887 0.37981796
-0.077220619 0.15032429 0.37770844
-0.073121063 0.15208545 0.37736404
-0.13158694 0.12991722 0.37088808
-0.087380566 0.15332164 0.3788031
-0.079720102 0.15701605 0.3750959
-0.075209118 0.15734416 0.37347081
-0.089323953 0.16024433 0.37885508
-0.083635144 0.16334437 0.37533468
-0.063695483 0.012632693 0.38863656
-0.056155734 0.015339344 0.38527283
-0.046215836 0.020270109 0.384543
-0.037597343 0.025347542 0.3840349
-0.0282558 0.028712032 0.38417962
-0.018875634 0.03213774 0.38466769
-0.0093418397 0.035077598 0.38543043
0.00070033845 0.039081212 0.38500482
0.0036497831 0.043758206 0.38730145
-0.063774206 0.018093681 0.38936621
-0.05810396 0.024205642 0.386455
-0.052264921 0.030846277 0.38452196
0.0022462853 0.045779362 0.38032371
0.0050501986 0.050962634 0.38473526
0.0088619804 0.057461854 0.3887805
-0.069353059 0.035162412 0.38995719
-0.062200267 0.03422666 0.38881111
-0.052274805 0.037990652 0.38669488
-0.04737531 0.036499482 0.38097093
0.0058460478 0.06119087 0.38185301
0.0085444162 0.063957892 0.38643649
-0.084168926 0.039454252 0.38831607
-0.07533104 0.04108116 0.38771802
-0.066649184 0.042840645 0.38595763
-0.05733145 0.046289198 0.38435081
0.0023816421 0.070700034 0.38011274
0.0073871063 0.073584542 0.38512412
-0.09673617 0.043614745 0.38750356
-0.088931538 0.04457802 0.38419938
-0.07975062 0.047856923 0.382294
-0.070469595 0.052232154 0.38196093
-0.06333641 0.054774344 0.38151366
0.0038994714 0.082817793 0.3847456
-0.10161101 0.050099943 0.3860693
-0.092943132 0.053760152 0.38156432
-0.08625713 0.052023154 0.38020891
-0.072421521 0.057863913 0.38000199
0.00037034735 0.092401624 0.38360348
0.0045635542 0.094456606 0.38885736
-0.1054282 0.058986463 0.38648623
-0.096826971 0.063013822 0.38252228
-0.091774054 0.066838041 0.38060388
-0.0112111 0.10019656 0.38129431
-0.0043849098 0.10042395 0.38557491
-0.10736766 0.068066448 0.38828039
-0.10070914 0.072249793 0.38465238
-0.092287257 0.076627821 0.38149223
-0.083879307 0.082448833 0.38092998
-0.074287131 0.087091699 0.38066226
-0.068529554 0.089926362 0.38077131
-0.033296566 0.10337093 0.3801704
-0.026531691 0.10484525 0.38164133
-0.016850011 0.1070267 0.38409778
-0.0095828911 0.10854039 0.38777706
-0.1079017 0.075219549 0.38986889
-0.10274798 0.080667891 0.38787484
-0.094998948 0.085520573 0.38522792
-0.085410103 0.089075528 0.38413101
-0.076462448 0.093226172 0.38488019
-0.067306921 0.097015336 0.38485914
-0.058511309 0.1009263 0.38391003
-0.049181439 0.10515749 0.38333848
-0.039511822 0.10892487 0.38242012
-0.030232573 0.1121529 0.38483655
-0.021268521 0.11362855 0.38786289
-0.095352344 0.091584943 0.38892758
-0.088330649 0.095296018 0.38824078
-0.0816276 0.097568542 0.38895935
-0.06611567 0.10250539 0.38898361
-0.0579575 0.10673819 0.38865006
-0.051206332 0.11047255 0.38828224
-0.041703958 0.1145938 0.38775966
-0.034721736 0.11698917 0.38842329
-0.12428988 0.10730153 0.3851223
-0.11570851 0.1099412 0.38523453
-0.13033275 0.11431841 0.38479662
-0.11767305 0.11927816 0.38516402
-0.098474771 0.13085574 0.38931215
-0.092321761 0.13246094 0.38851956
-0.084179781 0.13681866 0.38840744
-0.077886641 0.14054599 0.38920084
-0.13082342 0.12224802 0.3844128
-0.12408257 0.12444056 0.38408566
-0.10107295 0.13597997 0.38893265
-0.095228113 0.13936634 0.38564649
-0.085817315 0.14364365 0.38455263
-0.076859325 0.14673154 0.38479111
-0.07320144 0.1511974 0.38086739
-0.097720817 0.14784414 0.38642031
-0.09030775 0.15250129 0.38476643
-0.081997208 0.15481891 0.38230452
-0.091573022 0.160211 0.38571444
-0.087276898 0.16304928 0.38224152
-0.079153173 0.0062060291 0.39915472
-0.073276199 0.0079592839 0.39446312
-0.064187095 0.010283023 0.39449263
-0.054808792 0.013763939 0.39499688
-0.045905013 0.022320449 0.39466342
-0.037690744 0.025946127 0.39496914
-0.028486917 0.030049866 0.39498821
-0.019348796 0.034159407 0.3948665
-0.0094819171 0.036334652 0.394797
0.00078239711 0.037954621 0.39446414
0.0070693032 0.043600291 0.3961826
0.015875412 0.048984986 0.39886427
-0.07557258 0.014896624 0.39631951
-0.068619154 0.020425603 0.39347863
-0.062889762 0.025381332 0.39057013
0.0077775186 0.050014909 0.39295751
0.01479846 0.055217464 0.39478362
0.022720503 0.059905976 0.39674759
0.027910125 0.064509213 0.39931509
-0.071228638 0.02985264 0.39520085
-0.064759992 0.029746531 0.39072588
0.012925593 0.064173788 0.3928169
0.020314498 0.067933939 0.39453322
0.027015589 0.071812652 0.39738345
-0.092671894 0.035563659 0.39754254
-0.084906057 0.034692857 0.39570746
-0.076094396 0.036016054 0.39363167
0.012085944 0.073117018 0.39180258
0.015839435 0.076694198 0.39655012
0.024540188 0.07826712 0.39828375
-0.10459446 0.040666386 0.39742234
-0.09914694 0.03955603 0.39402321
-0.090758614 0.03855896 0.39151159
0.0075912764 0.085281029 0.39020896
0.010737821 0.085204795 0.39505965
-0.10930131 0.047108512 0.39581636
-0.10518575 0.047280997 0.39086682
0.0072663669 0.094550669 0.39470726
-0.11353047 0.055878744 0.39547479
-0.10997012 0.058319476 0.39066854
-0.0015792421 0.10479212 0.3917405
0.0026842798 0.10296313 0.39531502
-0.11598802 0.064872414 0.39687386
-0.11202273 0.068360664 0.39229023
-0.0064618681 0.11144046 0.39448404
-0.0011556161 0.10948353 0.39852655
-0.12091722 0.075495318 0.39803904
-0.11367833 0.077439539 0.39364564
-0.10651937 0.083180867 0.39092517
-0.027925691 0.11810068 0.39089292
-0.020233855 0.11811223 0.39367002
-0.013226758 0.11698976 0.39622498
-0.12567019 0.083316967 0.39673227
-0.11758903 0.086833119 0.39245653
-0.10821827 0.090836301 0.39126396
-0.098990194 0.094853327 0.39296538
-0.089865647 0.099823341 0.39479074
-0.079943262 0.10127808 0.3948358
-0.070104212 0.10384424 0.39458019
-0.061675772 0.10895617 0.39444888
-0.053046729 0.11517604 0.39442214
-0.043859556 0.1191253 0.3945736
-0.033854987 0.12086955 0.39488116
-0.025617192 0.12132322 0.3970651
-0.12783679 0.092778802 0.39785144
-0.12146758 0.09621793 0.39350596
-0.11184121 0.10041254 0.39227587
-0.10252304 0.1037327 0.39612013
-0.096080385 0.10250936 0.39913151
-0.12937735 0.10109997 0.3985185
-0.12589227 0.10454912 0.39398319
-0.11355634 0.10975046 0.39366654
-0.10676322 0.1126543 0.39793476
-0.098488435 0.11925485 0.39753792
-0.093524814 0.12295635 0.39859456
-0.129035 0.11421421 0.39482558
-0.11978965 0.11783801 0.39501628
-0.10886402 0.12214708 0.3972843
-0.10051847 0.12547101 0.39295065
-0.090761118 0.12821767 0.39456904
-0.083632492 0.13522032 0.39531437
-0.078020245 0.14005177 0.39166608
-0.127909 0.12103548 0.3912116
-0.12516212 0.12172243 0.39090264
-0.10997113 0.13066803 0.39755678
-0.10604257 0.13555424 0.39373925
-0.094381198 0.14016205 0.39688337
-0.086650662 0.14218782 0.39336106
-0.078184739 0.14314394 0.39190099
-0.10449494 0.14272559 0.39530718
-0.098794177 0.14831878 0.39519832
-0.09312775 0.15147047 0.39237785
-0.093904756 0.15676045 0.39144632
-0.080119178 0.0062939818 0.40514746
-0.073200174 0.0061861291 0.40529639
-0.063686542 0.0099532334 0.40507463
-0.054568771 0.01430238 0.40527475
-0.0470157 0.017575592 0.40596476
-0.037549853 0.025810786 0.40466473
-0.028750667 0.029646039 0.4049941
-0.019235374 0.033410702 0.40514427
-0.009176217 0.033824414 0.40448064
0.0012474873 0.038297385 0.40290236
0.0094483206 0.041840941 0.4053067
0.018156402 0.047867279 0.40520823
0.022981117 0.05205534 0.40722927
-0.080792576 0.010741008 0.40415037
-0.078030802 0.015746437 0.40527663
-0.072189443 0.022858437 0.40575099
0.025910577 0.057149999 0.40419629
0.030449647 0.063983552 0.40562943
-0.080027357 0.031217562 0.40657684
-0.073944166 0.029107125 0.40510687
0.031665586 0.072584487 0.404571
0.032856893 0.078040197 0.40866464
-0.093719549 0.032869563 0.40559706
-0.084886216 0.031402946 0.40433091
0.017192984 0.08103808 0.40143937
0.027249943 0.082670979 0.40361053
0.03157429 0.081389457 0.40831456
-0.1054688 0.038464297 0.40538698
-0.099626973 0.035749905 0.40422866
0.014220348 0.086838827 0.40478057
0.022710452 0.08674597 0.40668544
-0.1123584 0.045205709 0.40487391
0.0096930256 0.095791288 0.40468657
-0.11729366 0.054163609 0.40503603
0.0049266 0.10438516 0.40467572
-0.11947446 0.06404563 0.40488344
-0.0056109787 0.11459401 0.4039866
-0.00088559574 0.11110446 0.40503481
-0.1290684 0.073567167 0.40726179
-0.12381314 0.072218105 0.40375322
-0.018726928 0.12143373 0.40245
-0.012655454 0.11921316 0.4052566
-0.13226351 0.080286756 0.40746933
-0.13001046 0.082037568 0.40244591
-0.089160271 0.10260884 0.40415612
-0.080820203 0.1039796 0.40504536
-0.07137695 0.10655646 0.40480301
-0.062882371 0.11274186 0.40493205
-0.055597909 0.11722888 0.40220255
-0.044552267 0.12211493 0.40028602
-0.034500338 0.12455502 0.40436381
-0.024458533 0.12342469 0.40511686
-0.13441834 0.087503642 0.40773207
-0.13265818 0.091755919 0.40412113
-0.10006602 0.10815836 0.40139169
-0.095511913 0.10539081 0.40527529
-0.053682793 0.11912224 0.40603068
-0.045477867 0.1229511 0.40529969
-0.039446529 0.12480648 0.40704402
-0.1334752 0.10123084 0.40468568
-0.10138867 0.11184273 0.40160924
-0.098875977 0.11642265 0.40532133
-0.093501985 0.1230754 0.40089065
-0.13497046 0.10835044 0.40621331
-0.12846865 0.11440972 0.40469885
-0.11918578 0.11829337 0.40457696
-0.11251385 0.1244355 0.40543252
-0.10052302 0.12641768 0.40708125
-0.092625938 0.13009909 0.4026598
-0.087442286 0.13588123 0.40071148
-0.11079191 0.12969391 0.403548
-0.1045298 0.13516127 0.40394911
-0.098670252 0.1381706 0.40150771
-0.10293681 0.1425032 0.40022656
-0.10014513 0.1438126 0.40060076
-0.078734159 0.0064596008 0.41063669
-0.073665626 0.008504536 0.41463679
-0.065190233 0.0096428394 0.4152267
-0.044820443 0.018670227 0.41439614
-0.036944401 0.025586694 0.41518515
-0.02840809 0.029641312 0.41499332
-0.018315008 0.033203568 0.41496783
-0.0099333124 0.033170123 0.415705
-0.00014389367 0.038309578 0.41889536
0.010101089 0.042231746 0.41529644
0.018188117 0.047457833 0.41536713
0.023118189 0.052325912 0.41480315
-0.074888095 0.015061113 0.41289243
-0.068241782 0.021374216 0.41543847
0.026544891 0.056385241 0.41524637
0.031347167 0.063888237 0.41470176
-0.080489151 0.030691715 0.4147546
-0.070537232 0.0298869 0.4146834
-0.066079229 0.029148359 0.41664436
0.033357579 0.072426789 0.41495797
0.033210106 0.077539921 0.41372967
-0.094033353 0.032611128 0.41506344
-0.085659243 0.030521724 0.41562951
0.028990699 0.085634708 0.41628122
0.031406213 0.082586579 0.41421586
-0.10564832 0.038391296 0.41531831
-0.1005416 0.03496293 0.41540816
0.014681021 0.087725691 0.41485867
0.023366231 0.088043563 0.4149425
-0.11317275 0.044836812 0.41497672
0.0098687168 0.095814928 0.41472983
-0.11895911 0.053504761 0.41492456
0.0049041593 0.10438883 0.41466069
-0.1211082 0.063513078 0.41486853
-0.0055359146 0.11501731 0.41527319
-0.00095248915 0.11106297 0.4144178
-0.12960242 0.071567006 0.41507438
-0.12429361 0.068965912 0.41511762
-0.018279094 0.12213702 0.417384
-0.012547575 0.11940108 0.41499472
-0.13426475 0.07950034 0.41476595
-0.088407189 0.10222989 0.41541135
-0.080748774 0.10381106 0.41498998
-0.071569398 0.10667238 0.41504902
-0.063430637 0.11305577 0.41525492
-0.058690459 0.11633837 0.41836461
-0.033819403 0.12511997 0.41523114
-0.024164548 0.12393858 0.41485175
-0.13579977 0.089256801 0.41535404
-0.1351772 0.093277976 0.41190109
-0.099322885 0.10884187 0.41938111
-0.095083237 0.10626348 0.41477725
-0.059329327 0.11624719 0.41379839
-0.054449182 0.11905727 0.41485444
-0.045580368 0.12338611 0.41502309
-0.039210457 0.12503865 0.41469586
-0.13980307 0.099180795 0.41629159
-0.13723925 0.098888844 0.41155714
-0.10307617 0.1147382 0.41615546
-0.10068339 0.1137359 0.41195747
-0.14121144 0.10407589 0.41613531
-0.13754387 0.1086325 0.41487509
-0.12886938 0.11538023 0.41508785
-0.11968933 0.11934503 0.41503465
-0.10959727 0.12155092 0.41460365
-0.1035855 0.12222875 0.41067463
-0.071895078 0.0088153612 0.42541832
-0.064414941 0.010346088 0.42519689
-0.054673005 0.014226298 0.42821109
-0.04523427 0.018811921 0.42537901
-0.0375029 0.025700059 0.42523727
-0.028633235 0.029724447 0.4249278
-0.019450417 0.033743441 0.42489517
-0.0095541812 0.03600546 0.42497084
0.00025054376 0.037812188 0.42525312
0.0091563594 0.043323863 0.42490575
0.016620638 0.04866983 0.42313665
0.021975039 0.05226751 0.4201445
-0.073955432 0.014950236 0.4268316
-0.068657734 0.021515906 0.42445803
0.011337897 0.048900161 0.42942485
0.01657889 0.05243466 0.42762405
0.024507897 0.058859292 0.42557818
0.029679378 0.064454868 0.42271012
-0.07860145 0.032377087 0.4213112
-0.070148304 0.030900018 0.42476276
0.025608983 0.067009039 0.42923686
0.029660674 0.072378166 0.42507145
-0.09317714 0.034504719 0.42416689
-0.084521048 0.033611998 0.42510206
-0.076228946 0.035118517 0.42701259
0.015975084 0.078142993 0.427609
0.026347559 0.08135853 0.42497936
-0.10521365 0.040195651 0.42433622
-0.099489719 0.037477437 0.42596018
0.012597987 0.085968204 0.4246991
0.021894461 0.086159542 0.42197123
-0.11125396 0.045973722 0.42522115
0.0081935767 0.095107898 0.42486572
-0.11686513 0.054433402 0.42502889
-0.0012628412 0.10636646 0.42876592
0.0031198752 0.10363142 0.42469838
-0.11835381 0.064311981 0.42521015
-0.0055538919 0.11243826 0.42571053
-0.0011868795 0.10976323 0.42216751
-0.12959449 0.072654366 0.4242149
-0.12324755 0.070560455 0.42532179
-0.087156281 0.09311454 0.42939898
-0.075486444 0.097974271 0.42944947
-0.071812436 0.099836573 0.4290669
-0.019226413 0.12032579 0.42678225
-0.012958433 0.11810792 0.42486477
-0.13422517 0.079576723 0.42477101
-0.089623176 0.097973116 0.42566186
-0.079516731 0.1003323 0.42478552
-0.069928244 0.10399432 0.42474839
-0.062141716 0.11124231 0.42501137
-0.054172892 0.11672304 0.42640802
-0.044273641 0.12090819 0.42700985
-0.034573428 0.12312663 0.42523444
-0.02477823 0.12270791 0.42443612
-0.13554853 0.088928193 0.42369416
-0.13509087 0.092613302 0.42665493
-0.10026373 0.10663189 0.42634201
-0.095558286 0.10442092 0.42393103
-0.053022705 0.1190894 0.42177129
-0.045330994 0.1225021 0.42210639
-0.040103611 0.12426134 0.42139015
-0.1393685 0.098708786 0.42394766
-0.13832469 0.10175409 0.42816678
-0.10503911 0.11333537 0.42509359
-0.14096349 0.10420761 0.42111993
-0.13667925 0.10853053 0.42468318
-0.12859195 0.11487558 0.42499653
-0.11949308 0.11894705 0.42499894
-0.11050045 0.12012085 0.42474109
-0.073368862 0.0084760925 0.43504778
-0.063874565 0.010821776 0.4350712
-0.054758847 0.014693015 0.43491527
-0.046664841 0.018467138 0.43484282
-0.037437033 0.026407726 0.43442431
-0.028831011 0.030293891 0.43490061
-0.019589163 0.034068726 0.43399346
-0.0093005169 0.036783248 0.43434274
0.00032530259 0.038105108 0.43483883
0.0064943428 0.04359515 0.43444386
-0.075383089 0.015942445 0.43522012
-0.069479987 0.023439039 0.43606856
-0.060885839 0.027435185 0.43924981
-0.052374844 0.031065965 0.43943593
0.0074372962 0.051118769 0.43624088
0.014038124 0.057008225 0.43158174
0.02089873 0.06105651 0.43142426
-0.067947395 0.030558825 0.43233073
-0.063295111 0.03290876 0.43753383
-0.052857552 0.037028328 0.43842918
-0.046661053 0.041056726 0.43778023
0.0055819387 0.058654703 0.43881729
0.011230313 0.064285144 0.4344919
0.020116236 0.068512425 0.43164748
0.024426874 0.072772019 0.43020201
-0.092066087 0.037029348 0.43112859
-0.08523605 0.037754484 0.43320051
-0.075796925 0.039592721 0.43456066
-0.068219647 0.040899135 0.43776184
-0.053938106 0.046649646 0.43893725
-0.050289139 0.048555691 0.43856037
0.009282764 0.073950619 0.4360199
0.015243609 0.075625196 0.43070066
0.023307687 0.075729966 0.43016991
-0.10463636 0.042130601 0.43062359
-0.097586162 0.041462507 0.43411356
-0.08898633 0.042045753 0.43767285
-0.078110002 0.044516247 0.439291
-0.072745159 0.046518594 0.43955043
-0.05535863 0.053955052 0.43979129
-0.054036789 0.054246884 0.43974367
0.0055382578 0.083364584 0.43669131
0.0091076978 0.085210174 0.43117309
-0.10819298 0.047939714 0.43224815
-0.10304951 0.048458945 0.43709821
0.002084621 0.092612691 0.43653592
0.0054640668 0.093790889 0.43153152
-0.11213052 0.056607798 0.43231481
-0.10737942 0.058607388 0.43727681
-0.0029206714 0.10180564 0.43566638
0.0017905006 0.10081616 0.43078971
-0.11531886 0.066925839 0.43274379
-0.11003457 0.068503514 0.4363991
-0.10191526 0.0739647 0.43851405
-0.092132032 0.079090081 0.43882063
-0.082861759 0.082897589 0.43884346
-0.073956944 0.085653663 0.43837714
-0.066978388 0.090223581 0.43907097
-0.033276476 0.10514536 0.4399119
-0.027152896 0.10736555 0.43962127
-0.016668994 0.10821286 0.43836787
-0.0091180494 0.10907168 0.43373543
-0.1294737 0.072463095 0.43506703
-0.12207749 0.0701508 0.43506986
-0.10170726 0.079901949 0.43797898
-0.094863988 0.085908763 0.43594766
-0.085915849 0.088954903 0.43369308
-0.076480359 0.092860885 0.43335363
-0.067155503 0.096942678 0.4349269
-0.058923904 0.10190534 0.43761367
-0.050186239 0.10736971 0.43861553
-0.039116438 0.11041823 0.43849793
-0.030470904 0.11238319 0.43709877
-0.020740101 0.1153843 0.43387616
-0.013831334 0.11505178 0.43136945
-0.13311726 0.080068052 0.43476295
-0.10556398 0.096674308 0.43969029
-0.097794674 0.095538527 0.43616337
-0.093357317 0.096766703 0.43115455
-0.066547334 0.103186 0.43093881
-0.060215466 0.10785256 0.43242809
-0.05175747 0.11253113 0.43382105
-0.042595904 0.11640659 0.43356514
-0.033615205 0.11861067 0.43276709
-0.026602758 0.12009659 0.43124229
-0.13398252 0.087206952 0.43484321
-0.13499118 0.091866195 0.43499416
-0.10956928 0.10197186 0.43732339
-0.10309639 0.10292108 0.43366358
-0.13524069 0.10111738 0.43504456
-0.12765314 0.10864376 0.43887392
-0.11443101 0.11045582 0.43792352
-0.10911528 0.11214001 0.43288723
-0.13386957 0.1079188 0.43242541
-0.12730597 0.11214573 0.4341417
-0.11852849 0.11611712 0.43406516
-0.11198585 0.11819836 0.43225271
-0.07182996 0.010047588 0.44268286
-0.06478402 0.012222097 0.4448154
-0.055695277 0.016211545 0.44347626
-0.046252761 0.019952072 0.44489181
-0.036695912 0.022488797 0.44636688
-0.026610041 0.026888112 0.44667822
-0.0185245 0.031463556 0.44610673
-0.0097137783 0.035380229 0.44435561
-0.00073188508 0.039612066 0.44294894
0.004363141 0.043609153 0.44092706
-0.073299937 0.015778264 0.4420363
-0.067567177 0.019346086 0.44425523
-0.058324851 0.023168646 0.44262043
-0.049347356 0.027960584 0.44420248
-0.04296615 0.034954078 0.44719607
-0.030951845 0.038108561 0.44856539
-0.021472406 0.038727678 0.44794175
-0.011857977 0.042573974 0.44667414
-0.0032683017 0.047395062 0.44437748
0.0029862402 0.049761392 0.44107032
-0.060702048 0.038095064 0.44024119
-0.0581627 0.039301854 0.44030729
-0.042667337 0.042261463 0.44350499
-0.037222262 0.043188762 0.44861203
-0.0057004923 0.056106709 0.44796619
0.00095138792 0.06068942 0.44375947
0.0059573352 0.066054866 0.44027805
-0.064877927 0.044112772 0.44085845
-0.058887035 0.046326511 0.44119346
-0.046601873 0.051223151 0.44473535
-0.041951314 0.049970228 0.44920027
-0.0073972987 0.065569639 0.44916797
-0.0017343273 0.06967923 0.44495514
0.0041231532 0.07213971 0.44085649
-0.08859247 0.046685036 0.44123805
-0.079746075 0.048849266 0.44234028
-0.070181645 0.05190352 0.44237366
-0.061090231 0.05566939 0.44166589
-0.053279977 0.058830928 0.44513932
-0.0084631564 0.072274454 0.4497622
-0.005091913 0.079047158 0.44658843
0.00065751892 0.082071818 0.44177589
-0.09916196 0.051815659 0.4409323
-0.092669994 0.053392608 0.44361809
-0.083249427 0.057277951 0.44473723
-0.073977344 0.061017938 0.44360262
-0.064729966 0.064803198 0.44299933
-0.058451537 0.067701295 0.44690579
-0.016550308 0.088354699 0.44937298
-0.0090486472 0.08861915 0.44688416
-0.0023661847 0.090932935 0.4419758
-0.10266468 0.059397615 0.4410634
-0.096260242 0.062260959 0.44323555
-0.087010227 0.066347204 0.44417563
-0.077736899 0.070110798 0.44313037
-0.068515047 0.073977746 0.44377187
-0.059821874 0.077977173 0.44559532
-0.052318398 0.08483506 0.4471091
-0.042726789 0.090199783 0.44931912
-0.032886807 0.093361959 0.44882196
-0.021697219 0.094430834 0.44819185
-0.013127285 0.097338468 0.44516903
-0.0063680685 0.09858679 0.44137642
-0.11613965 0.070832044 0.44084871
-0.11221798 0.072126396 0.44170892
-0.098412484 0.069950089 0.44129366
-0.090258516 0.073949635 0.44170943
-0.081100501 0.077992491 0.44129393
-0.070886806 0.081256881 0.44150719
-0.062580839 0.086956248 0.44239366
-0.054055732 0.091088228 0.44308648
-0.043890122 0.093981743 0.4446587
-0.035484813 0.098634809 0.44369775
-0.025998732 0.10227042 0.44422525
-0.017668329 0.10385135 0.44232503
-0.12908429 0.07312692 0.44213748
-0.12240523 0.073160946 0.44522533
-0.11276853 0.074935071 0.44667882
-0.10459308 0.081730165 0.44482911
-0.10067541 0.087984622 0.4404797
-0.05529473 0.098250978 0.4410727
-0.047696829 0.10250542 0.44165677
-0.039360233 0.10552629 0.44122422
-0.13208976 0.079725139 0.44235906
-0.12784918 0.082114995 0.44746724
-0.10712828 0.091729693 0.44555327
-0.10182238 0.092136063 0.44076431
-0.13348286 0.086527869 0.4402096
-0.13100897 0.092192575 0.44527158
-0.12054385 0.098429002 0.44889319
-0.11338989 0.099377751 0.44419473
-0.13120316 0.10002879 0.44257179
-0.12432019 0.10482078 0.44418925
-0.11761504 0.10725015 0.44234264
-0.043508604 0.022677105 0.45116305
-0.037299171 0.024272157 0.45296189
-0.028897669 0.0282261 0.45138979
-0.045059595 0.026756605 0.45076948
-0.039365899 0.030929653 0.45254403
-0.031376135 0.033820424 0.45140576
-0.022859612 0.043455146 0.45044044
-0.014430673 0.046596561 0.45077029
-0.034140307 0.04644943 0.45152262
-0.025577743 0.048689224 0.45355964
-0.01629485 0.052562114 0.45316136
-0.010341603 0.056258574 0.45141107
-0.045345597 0.055100184 0.45094669
-0.038708646 0.053999122 0.45344687
-0.029396333 0.057905212 0.45611942
-0.019862413 0.061693422 0.45562902
-0.012376635 0.066146769 0.45224777
-0.050135326 0.06175679 0.45282471
-0.04245054 0.063034341 0.45577186
-0.033168022 0.067015022 0.45793942
-0.023806667 0.071144409 0.45626488
-0.014987115 0.075380705 0.45335704
-0.009682714 0.078024566 0.45056048
-0.054224808 0.069446318 0.45377696
-0.046356756 0.072738335 0.45702463
-0.037132069 0.076586932 0.45726809
-0.027888361 0.080587231 0.45630518
-0.018949829 0.083806723 0.45275041
-0.012130936 0.084410377 0.45038357
-0.055499982 0.076721795 0.45182317
-0.049732402 0.081301577 0.45377743
-0.041090261 0.086294718 0.45398277
-0.032077245 0.089160472 0.45310694
-0.023029575 0.090263851 0.451774
-0.11359142 0.079295404 0.45169467
-0.1080246 0.082068212 0.45156065
-0.12462035 0.085697666 0.45141715
-0.11697115 0.086721629 0.45264146
-0.1101651 0.088208131 0.45167542
-0.12605326 0.09138754 0.4511148
-0.12086866 0.093938872 0.45152989
0 0 0 1 0 0 0 1 0 0 0 1 0 0 0 0 0 761 1 0 0
