ply
format ascii 1.0
comment PCL generated
element vertex 983
property float x
property float y
property float z
element camera 1
property float view_px
property float view_py
property float view_pz
property float x_axisx
property float x_axisy
property float x_axisz
property float y_axisx
property float y_axisy
property float y_axisz
property float z_axisx
property float z_axisy
property float z_axisz
property float focal
property float scalex
property float scaley
property float centerx
property float centery
property int viewportx
property int viewporty
property float k1
property float k2
end_header
-0.065621734 0.159731 -0.056030124
-0.062874198 0.16154701 -0.05443
-0.06623818 0.16650893 -0.057741892
-0.061762668 0.16717066 -0.058070056
-0.0728328 0.1778335 -0.0545149
-0.066360787 0.17620717 -0.058084663
-0.061871741 0.17458975 -0.059163682
-0.07301873 0.18074733 -0.054556802
-0.06853471 0.18083203 -0.056964029
-0.069066502 0.15230018 -0.046507034
-0.067389831 0.15724687 -0.049601678
-0.062818684 0.16148998 -0.049589664
-0.072997496 0.16968289 -0.046731491
-0.0691505 0.16652457 -0.049815111
-0.062322073 0.16644873 -0.050003525
-0.075755566 0.1765371 -0.048832607
-0.067376859 0.17561895 -0.049611766
-0.062588401 0.1725225 -0.053100001
-0.073312826 0.18050367 -0.052403469
-0.07035666 0.180613 -0.0527629
-0.014531527 0.062316712 -0.036415201
-0.021125901 0.068690024 -0.037337963
-0.013887235 0.067956686 -0.037505239
-0.0074400427 0.070173293 -0.03634771
-0.0277909 0.079667203 -0.0363416
-0.022709319 0.076379701 -0.038177572
-0.013773747 0.076373436 -0.038479581
-0.0054888818 0.076800391 -0.037080053
-0.027792232 0.082468599 -0.036208097
-0.022436401 0.085040748 -0.03773535
-0.013653405 0.085611418 -0.038362719
-0.0052339109 0.084880687 -0.037124652
0.00018869751 0.083281696 -0.0361237
-0.0202916 0.090624437 -0.036306359
-0.01326925 0.090962172 -0.036601011
-0.00814733 0.090636104 -0.03621345
-0.072572999 0.1511025 -0.039375164
-0.068874992 0.15067521 -0.040537942
-0.07233505 0.1573768 -0.038217999
-0.067870721 0.15647596 -0.041837722
-0.062428888 0.15978402 -0.039933819
-0.075803809 0.16708563 -0.040265724
-0.065768033 0.16762364 -0.040768996
-0.062395152 0.16433717 -0.04104647
-0.075868234 0.17391706 -0.041112166
-0.068878874 0.17286997 -0.04097053
-0.039210211 0.034383506 -0.028731748
-0.032269962 0.034171939 -0.029472986
-0.023476757 0.034968812 -0.0284732
-0.017503601 0.0357848 -0.0270478
-0.038564108 0.039446793 -0.028217506
-0.031430677 0.040654384 -0.029536169
-0.022351841 0.039954316 -0.028619127
-0.016416889 0.040795334 -0.027453702
-0.029839939 0.045513939 -0.02753908
-0.02195891 0.049231868 -0.028754363
-0.013650797 0.048872013 -0.030490484
-0.0045877434 0.049160384 -0.030399887
0.0041766241 0.050495021 -0.029416718
0.012220829 0.05170038 -0.028219972
0.0188627 0.053707451 -0.02740705
-0.027679367 0.060386822 -0.028208531
-0.022586716 0.058725875 -0.032104176
-0.013520922 0.057659831 -0.034547947
-0.0048007392 0.058552209 -0.033738986
0.004322717 0.058973391 -0.031687669
0.013328888 0.058807578 -0.029261554
0.01913384 0.058260031 -0.027489573
-0.029037319 0.068063766 -0.030111238
-0.024843944 0.066375792 -0.033993918
-0.0097212605 0.064926952 -0.035887152
-0.0041107107 0.06715221 -0.035107471
0.0042748819 0.067584105 -0.033302471
0.01328408 0.06739372 -0.030613875
0.019731272 0.067374565 -0.028239626
-0.030854302 0.076674275 -0.031613059
-0.0267449 0.072584599 -0.0356647
-0.0019369273 0.074221559 -0.035815511
0.0043094316 0.076235525 -0.034624517
0.013246025 0.076588728 -0.030849084
0.019420806 0.076067939 -0.027822224
-0.030201148 0.085302241 -0.031448416
-0.02582843 0.088726625 -0.035200369
-0.0022875983 0.088938966 -0.035520285
0.004338929 0.085446246 -0.033856381
0.013484742 0.085969023 -0.030144975
0.018958859 0.084021442 -0.02760019
-0.028207628 0.091135733 -0.029503882
-0.022389442 0.093697473 -0.031599127
-0.013509997 0.095206365 -0.032280657
-0.0044671465 0.095032007 -0.032160752
0.0042091468 0.094173096 -0.030761555
0.011858034 0.092402384 -0.028859487
-0.073692523 0.15037817 -0.03153611
-0.066967793 0.14913037 -0.031417575
-0.062713258 0.1520572 -0.028852681
-0.073579326 0.15754518 -0.031920761
-0.063291229 0.15345733 -0.03442587
-0.061926346 0.15769891 -0.031465892
-0.077205792 0.16668363 -0.031603508
-0.066458195 0.16802682 -0.031164868
-0.06257648 0.163519 -0.032342125
-0.074110493 0.17169407 -0.034060348
-0.070402361 0.17148618 -0.0338859
-0.010874215 0.17636633 -0.028595779
-0.0088221394 0.17496499 -0.0277653
-0.012328348 0.18152378 -0.028257795
-0.045969464 0.03497031 -0.020178527
-0.040863059 0.033771839 -0.022625325
-0.03145536 0.034065373 -0.022393925
-0.02253958 0.034029249 -0.022271775
-0.013668888 0.034236111 -0.021993531
-0.0049244645 0.034257624 -0.021734115
0.0039960183 0.034250196 -0.020625366
0.011477614 0.034882691 -0.019861842
-0.045631051 0.037968382 -0.019863583
-0.042000536 0.041465268 -0.022895852
-0.029513741 0.03660984 -0.018684
-0.02272022 0.036798894 -0.018601833
-0.012284555 0.03959832 -0.026080629
-0.004523824 0.039925981 -0.025440194
0.0044021215 0.040484995 -0.024410179
0.013267899 0.04050304 -0.022817586
0.019618031 0.04283306 -0.020434044
-0.038083967 0.046547603 -0.020836992
-0.030732166 0.049322035 -0.023018062
-0.025861461 0.049941245 -0.026343673
0.0073846099 0.046376869 -0.026100166
0.014700348 0.048201069 -0.025317311
0.022372812 0.049915262 -0.022248337
0.028027533 0.052293971 -0.019256134
-0.029491954 0.058685154 -0.022333195
-0.0268504 0.054832399 -0.026406299
0.023845833 0.058682438 -0.024484601
0.028554922 0.059510954 -0.02007794
-0.031834565 0.067278631 -0.022452863
0.024357446 0.067290366 -0.024726005
0.029085554 0.067796946 -0.020857438
-0.06443698 0.080000557 -0.018347533
-0.058187928 0.07782463 -0.019177316
-0.050052114 0.077972941 -0.019228922
-0.040746186 0.076913573 -0.01894013
-0.034226727 0.076085865 -0.023217119
0.023898112 0.076933846 -0.025538815
0.030043354 0.076475725 -0.021133907
-0.065236628 0.085813835 -0.018717822
-0.058796082 0.085413225 -0.02050259
-0.049788442 0.085531123 -0.021568406
-0.040940166 0.085361265 -0.021712096
-0.033835918 0.08573278 -0.024848983
0.023149183 0.085891612 -0.024859177
0.030536888 0.085231543 -0.020222927
-0.064504616 0.092934616 -0.018488377
-0.058693387 0.094648555 -0.020212598
-0.049833551 0.094901085 -0.021928957
-0.040678021 0.09472765 -0.022639386
-0.031722747 0.094603308 -0.024069289
-0.023037327 0.097098686 -0.025051627
-0.014083453 0.098403297 -0.025707031
-0.0043805093 0.098841265 -0.026688337
0.0052474774 0.098024637 -0.025062867
0.014134766 0.09565974 -0.024579288
0.022356082 0.09472774 -0.022384005
0.029094767 0.093339801 -0.019494662
-0.058237962 0.10268929 -0.018859807
-0.049874082 0.10348146 -0.020522766
-0.040865373 0.10352456 -0.020870341
-0.031911306 0.103939 -0.021754537
-0.022866884 0.10389506 -0.023093605
-0.013568278 0.10382233 -0.023156367
-0.0044588805 0.10314909 -0.023244707
0.0040562381 0.1032461 -0.021757955
0.013426393 0.10345432 -0.020784158
0.021752408 0.10173354 -0.019984437
-0.05522367 0.108846 -0.018178133
-0.049863588 0.10915311 -0.018622005
-0.040324714 0.10967955 -0.018956894
-0.032031301 0.10964221 -0.019035617
-0.022026116 0.11063261 -0.019807026
-0.01371871 0.11077501 -0.019884745
-0.0047472254 0.11127288 -0.020560887
0.0040770564 0.11190371 -0.019671103
0.011539046 0.11044996 -0.018808514
-0.074262038 0.14969301 -0.02275575
-0.066435851 0.14710547 -0.022770144
-0.062534586 0.1511337 -0.022242298
-0.076188169 0.1578086 -0.022753518
-0.063581795 0.160772 -0.019534687
-0.061921149 0.15721083 -0.022901567
-0.075919114 0.16550049 -0.023163814
-0.067330115 0.16573268 -0.022830594
-0.027173201 0.16970401 -0.0183584
-0.021627707 0.1683111 -0.019231049
-0.012035507 0.16770555 -0.021358484
-0.0087974053 0.169642 -0.023248348
-0.027506886 0.17291915 -0.018304134
-0.022311507 0.17522182 -0.021010544
-0.013262668 0.17497255 -0.022695033
-0.0087508997 0.17237955 -0.025609901
-0.020415019 0.18350722 -0.020893991
-0.01515613 0.18345234 -0.022886187
-0.058256984 0.034296002 -0.010308849
-0.048897896 0.034092594 -0.012849612
-0.040996499 0.034075677 -0.014018935
-0.0346676 0.0359024 -0.017193001
-0.010947918 0.035405926 -0.017638925
-0.0041801729 0.03511095 -0.016849274
0.0046161786 0.034727573 -0.015682528
0.013483689 0.034663711 -0.01348281
0.01831392 0.035433881 -0.0110833
-0.057004668 0.038552929 -0.0098752491
-0.048798002 0.040196601 -0.012265101
-0.041698378 0.041386154 -0.014373478
-0.031315643 0.038284641 -0.013885064
-0.022370767 0.038554944 -0.013787641
-0.013517484 0.038305849 -0.014233487
-0.0046387645 0.038390405 -0.013314496
0.0042441734 0.037934992 -0.011910384
0.01749225 0.036840253 -0.017189801
0.020920681 0.040721413 -0.013749043
-0.047167182 0.049351428 -0.0097663468
-0.040459149 0.049133528 -0.012644988
-0.032622728 0.051645257 -0.013545433
0.025731411 0.046125267 -0.014244689
0.029525358 0.050349608 -0.013647076
-0.048559614 0.058793075 -0.0109955
-0.040654562 0.058513671 -0.011863609
-0.032828987 0.058377407 -0.01379451
0.032891542 0.058160543 -0.014383309
0.036858492 0.060317896 -0.010756672
-0.06640435 0.070297591 -0.010915152
-0.058381073 0.068782888 -0.013024425
-0.049680326 0.067151032 -0.013481962
-0.040699765 0.067356773 -0.015471787
-0.034436099 0.066246912 -0.01611043
0.034251276 0.06753318 -0.016194046
0.038271271 0.067677692 -0.011625441
-0.07436417 0.078552246 -0.011581233
-0.067900427 0.076422654 -0.015340509
-0.059436541 0.07372424 -0.016992722
-0.049347997 0.073656328 -0.016787646
-0.040730499 0.073009446 -0.0177208
0.034465689 0.075673416 -0.016099615
0.038274772 0.076886587 -0.011775574
-0.07616315 0.085704051 -0.012887429
-0.069698326 0.085941851 -0.016987579
0.03514057 0.085786566 -0.017401546
0.038838394 0.085648432 -0.013224281
-0.076321997 0.094374411 -0.012588331
-0.068503335 0.094804831 -0.016466612
-0.062863499 0.097474054 -0.017797749
0.033134092 0.094994672 -0.015353397
0.038030449 0.093534149 -0.011084497
-0.074903831 0.10286269 -0.011067256
-0.068039402 0.10332984 -0.014655395
-0.061146256 0.10554385 -0.0174041
0.017169526 0.10681926 -0.017643375
0.0234774 0.1056849 -0.016422879
0.031325452 0.10349587 -0.013403947
0.036527548 0.10127237 -0.0099206166
-0.073382944 0.1092655 -0.0093263704
-0.066940412 0.1119362 -0.011575834
-0.059015796 0.11262427 -0.01518609
-0.049704477 0.11375796 -0.016458262
-0.040863104 0.11420668 -0.016259028
-0.031407882 0.11435735 -0.016033124
-0.022711007 0.1146478 -0.016249802
-0.013550038 0.11534459 -0.016623702
-0.0055185938 0.1157081 -0.016701449
0.0047449893 0.1163527 -0.017557072
0.014291105 0.11376155 -0.016279215
0.022546262 0.11247423 -0.013138385
0.029405029 0.11007175 -0.010743153
-0.064900495 0.118018 -0.0092508765
-0.058219425 0.11928535 -0.010858831
-0.049223665 0.12088639 -0.012133407
-0.040619269 0.12073521 -0.011993603
-0.031297032 0.11904616 -0.011309726
-0.022408273 0.11894348 -0.011893632
-0.013351327 0.11991942 -0.01230867
-0.00434659 0.12097882 -0.012398995
0.0046593919 0.12076055 -0.013268879
0.013073477 0.12030251 -0.012253418
0.020059852 0.11819801 -0.01059037
-0.069368407 0.12844057 -0.009055716
-0.072587974 0.14385 -0.01208085
-0.06820599 0.14310727 -0.01165569
-0.075090274 0.14901002 -0.013790982
-0.065534659 0.14540116 -0.014813554
-0.062526435 0.14958702 -0.013246579
-0.076727092 0.15794176 -0.013698915
-0.065713577 0.15884012 -0.012374778
-0.062385008 0.15510419 -0.01545908
-0.039591331 0.15816699 -0.010697553
-0.031547762 0.15826389 -0.01193107
-0.022558037 0.15957463 -0.012032627
-0.016037067 0.1607589 -0.011682294
-0.073880799 0.16331868 -0.014730741
-0.069157809 0.16351189 -0.015195346
-0.039759122 0.16582665 -0.011891791
-0.031003131 0.16608058 -0.01543213
-0.022211054 0.16600113 -0.013752813
-0.013916961 0.16530903 -0.014698056
-0.037794977 0.17290683 -0.011037008
-0.031234391 0.17522089 -0.013996452
-0.022654444 0.17527635 -0.013686985
-0.01662202 0.17300798 -0.017200647
-0.028195163 0.18109262 -0.011604653
-0.022075785 0.18317242 -0.014161237
-0.066758975 0.034098201 -0.004276108
-0.05849671 0.033475935 -0.0044481512
-0.049329359 0.033535264 -0.0045383014
-0.042788059 0.033851475 -0.0040172571
0.0068907388 0.034851063 -0.0026436136
0.013239835 0.034468982 -0.0045713191
0.019633258 0.035272863 -0.0042594243
-0.066489302 0.040186264 -0.0038896
-0.059542254 0.041875288 -0.0071667586
-0.052551236 0.044472869 -0.0085276999
-0.037405141 0.038033914 -0.0072599878
-0.031396229 0.038370632 -0.0045597842
-0.022684 0.038415905 -0.0043800571
-0.013547246 0.038684018 -0.0045499578
-0.0043031373 0.03897034 -0.0045454255
0.0036477565 0.038448244 -0.0053352574
0.023467105 0.039683964 -0.0056458167
0.031383999 0.041429933 -0.0035792191
0.038792998 0.042471301 -0.0022672566
-0.05690318 0.048908833 -0.0031454877
-0.051600095 0.049746964 -0.0076257978
0.026716299 0.045060799 -0.00869474
0.032361113 0.048714612 -0.0070625641
0.040376052 0.049764227 -0.0059738886
0.048385892 0.050331071 -0.0031933945
-0.065048017 0.062327579 -0.0018664044
-0.057273235 0.059335582 -0.0034384544
-0.052752927 0.057037886 -0.0078611765
0.035349302 0.054936271 -0.0083409837
0.040634897 0.058455408 -0.00560551
0.049638078 0.058665238 -0.0040033539
0.054719627 0.059354786 -0.0011238711
-0.07447321 0.070402034 -0.0029469794
-0.068160824 0.066844225 -0.0048274067
-0.059077412 0.064805388 -0.0077813691
0.041806217 0.067621402 -0.0048046671
0.049298253 0.064936623 -0.0011341401
0.054322999 0.064171001 -0.00020887901
-0.081716813 0.07882385 -0.001969377
-0.077988714 0.075746782 -0.0056462288
0.042724892 0.07675086 -0.0047108205
-0.08370351 0.085944809 -0.0035103075
-0.080136344 0.084725551 -0.0079022432
0.043161158 0.085295804 -0.0047958163
-0.083869897 0.094419725 -0.0041835285
-0.080349557 0.09554708 -0.0083707161
0.04160003 0.094355367 -0.0049375514
-0.083085328 0.1026582 -0.002926664
-0.078862019 0.10433061 -0.0071370234
0.035042286 0.10694214 -0.0073500345
0.038565908 0.10301487 -0.0044701537
-0.082323238 0.11297929 -0.00143215
-0.076972738 0.11262333 -0.00526634
-0.07047309 0.11517259 -0.0083878059
0.026194157 0.11599071 -0.0075674802
0.032139894 0.11279367 -0.0046782838
0.03657712 0.1085076 -0.0020275505
-0.084665462 0.12160029 -0.0026772271
-0.076883048 0.12152532 -0.00676951
-0.068082355 0.12185356 -0.0087587591
-0.058793001 0.12370455 -0.0081051309
-0.050376616 0.12496883 -0.0076757907
-0.039298702 0.12501337 -0.0070930268
-0.031832766 0.12335403 -0.0048111803
-0.02240235 0.12340225 -0.0048089414
-0.01471121 0.12392391 -0.0063654212
-0.0042018355 0.12534294 -0.0081229797
0.0045383642 0.12531751 -0.0079897288
0.014456565 0.12414726 -0.0063242465
0.02251686 0.12119 -0.0043045874
0.028514577 0.11819122 -0.002253142
-0.084197067 0.12982441 -0.002606096
-0.076943077 0.13031718 -0.0066764541
-0.067552932 0.13081345 -0.0085369218
-0.058296259 0.13050602 -0.0065756636
-0.049827654 0.12939626 -0.0034854414
-0.040911209 0.12701993 -0.0030385423
-0.035119399 0.12632549 -0.00040466801
-0.01210044 0.12695339 -0.0025946219
-0.004550573 0.12775308 -0.0040060696
0.004544748 0.12798029 -0.003766682
0.012462742 0.12726055 -0.0024621531
0.0180905 0.12620001 -1.26099e-05
-0.082029529 0.13812482 -0.001381762
-0.076894119 0.13931146 -0.0053985082
-0.067209505 0.13882864 -0.0078731906
-0.058354195 0.13941945 -0.0045582517
-0.052912012 0.13839984 -0.0010566806
-0.077390961 0.14864536 -0.004873374
-0.063548617 0.15150179 -0.0045643193
-0.059613753 0.14794037 -0.0033632277
-0.049403358 0.14844245 -0.002833802
-0.040752798 0.15023734 -0.0040916023
-0.034404285 0.15221038 -0.0032527065
-0.075254656 0.15645601 -0.0050954246
-0.067625619 0.15651488 -0.0047016554
-0.055497415 0.15563206 -0.0014456986
-0.049400456 0.15734048 -0.0055635013
-0.040879834 0.15422456 -0.0082076835
-0.030425973 0.15564233 -0.0040836674
-0.023305818 0.1583958 -0.0046656136
-0.017249301 0.16077949 -0.0075322604
-0.047884632 0.16562611 -0.0044692177
-0.041270629 0.16716354 -0.0041939868
-0.031936605 0.16626614 -0.0045225942
-0.023503378 0.16371433 -0.0071588932
-0.016603166 0.16254033 -0.0083536366
-0.03979595 0.17313115 -0.004623977
-0.031410143 0.17518619 -0.0051100706
-0.026604934 0.17816967 -0.0081217466
-0.028270239 0.18063979 -0.0078961244
-0.026153566 0.18072051 -0.0082176076
-0.072420731 0.03528811 0.0049301013
-0.067747682 0.033791877 0.0045149517
-0.058468021 0.033512142 0.004502418
-0.049477328 0.033757087 0.0047421833
-0.041076291 0.033975527 0.0052698916
-0.034783117 0.033733342 0.0073223701
-0.00046390932 0.03554213 0.0078924671
0.0043753502 0.034455787 0.0045154681
0.013651286 0.034672793 0.0023725163
0.022013415 0.034832362 0.0046583656
0.029373694 0.035279408 0.0060060127
-0.072409131 0.036908545 0.0047921026
-0.069445029 0.041687779 0.0044671288
-0.02891578 0.038174909 0.0034996145
-0.022579968 0.038255792 0.0044357958
-0.013595045 0.03843778 0.0045599262
-0.0046423506 0.038418647 0.0045746397
0.002325641 0.0370727 0.0025194506
0.013676119 0.036130432 0.0040509733
0.023715833 0.036435798 0.0020457392
0.032454729 0.03695577 0.0031371173
0.040466852 0.039692376 0.0044897562
0.047604986 0.043560252 0.0051423665
-0.064287104 0.045739774 0.0039330008
-0.058068953 0.05006928 0.004869435
0.051872231 0.047739048 0.0034124521
0.056007557 0.051807467 0.0049239188
-0.066500887 0.061325651 0.004989984
-0.058555525 0.057759173 0.0045471648
0.058004778 0.058620878 0.0041741244
-0.075857677 0.068160057 0.0051163635
-0.070234902 0.063933849 0.0025611138
0.044293221 0.069385201 0.00080780778
0.049779668 0.06950409 0.0028637545
0.057352327 0.067402683 0.004743862
-0.083475463 0.077337123 0.0048698192
-0.080219559 0.073240213 0.0033808788
0.044619713 0.073731832 0.00053753087
0.046826247 0.076168343 0.0051581915
0.055049032 0.072234802 0.0078887502
-0.086694337 0.085464187 0.0043565575
0.044774815 0.08487276 0.00075259525
0.04565943 0.085604608 0.0048740702
-0.087525181 0.094252393 0.0045501473
0.044058058 0.095706485 0.0034288114
0.045380823 0.091873758 0.0059101642
-0.08610104 0.10353992 0.0043950868
0.041120347 0.10380927 0.0041126693
-0.090706132 0.1153916 0.0075173401
-0.08578179 0.11204837 0.0039793374
0.034190852 0.11468105 0.0042741788
0.037495431 0.11005429 0.0044569853
-0.091170445 0.1212973 0.0067056264
-0.088648185 0.12130092 0.002229444
-0.029807381 0.12532221 0.0038377913
-0.02474677 0.12547523 0.0032474527
0.023691498 0.1238863 0.0040528681
0.029667003 0.11947624 0.0048565133
-0.090832524 0.1300396 0.0071452199
-0.088141687 0.13094173 0.0027082721
-0.047211319 0.13187151 0.0039904178
-0.040626373 0.1284558 0.0043895179
-0.033906605 0.12681207 0.0053026336
-0.020826463 0.1268267 0.0053446167
-0.013490166 0.12851553 0.0043488094
-0.0043248674 0.13027777 0.0042457297
0.0046317331 0.13081546 0.0041592158
0.013656581 0.12911415 0.0042584222
0.019581825 0.12671165 0.0052687787
-0.085854284 0.13952394 0.0043664868
-0.0499321 0.139393 0.0041695321
-0.083954968 0.14829706 0.0048343553
-0.079760008 0.151379 0.001184123
-0.063450597 0.15272 2.2452299e-05
-0.061456501 0.15245067 0.00026533302
-0.047056239 0.14635377 0.005109963
-0.041663066 0.14981534 0.0038106192
-0.0353681 0.15215051 0.00042236381
-0.081856132 0.153565 0.0082760165
-0.075809419 0.15487263 0.0047417856
-0.06741152 0.15518813 0.0044924477
-0.0582164 0.15746799 0.0041456348
-0.048462119 0.15879056 0.0076993559
-0.040594403 0.1572632 0.0046030539
-0.032611106 0.15731429 0.0017852439
-0.048987474 0.16453743 0.0033106571
-0.040788449 0.16615576 0.0027403366
-0.038500898 0.17115301 0.00061119173
-0.0354998 0.17123 0.000174393
-0.06666477 0.034631129 0.01271414
-0.058604792 0.033674955 0.013608638
-0.052221935 0.034044936 0.011784225
-0.037917916 0.034884337 0.010551452
-0.033294842 0.034148704 0.01401344
-0.00056996779 0.035431713 0.013348162
0.0030413184 0.034328263 0.013941292
0.024311133 0.034950174 0.013337777
0.030156851 0.035146736 0.012783531
-0.066600524 0.039874062 0.012357802
-0.059790753 0.042777497 0.015258752
-0.053453151 0.044870399 0.017201949
-0.038160369 0.036194731 0.011725768
-0.027318001 0.037861302 0.013038441
-0.022457369 0.038057733 0.013571418
-0.013527734 0.038299836 0.013572793
-0.004621706 0.037923001 0.013759258
0.021859581 0.036228981 0.014219861
0.034434889 0.036577009 0.015044694
0.040393643 0.038950879 0.013763036
0.048331883 0.043047667 0.013307994
-0.056421455 0.048052236 0.011165889
-0.051672682 0.049931105 0.014764462
0.052702755 0.04624724 0.013206543
0.056834921 0.050863609 0.013188378
-0.067390002 0.060802631 0.013566173
-0.058902822 0.057781823 0.012924845
-0.052014083 0.055052582 0.013901605
0.060154311 0.058822341 0.013166811
-0.076310374 0.067695059 0.013684334
-0.071637496 0.063276246 0.014311621
0.059758563 0.067928679 0.013300898
-0.083803095 0.077046789 0.013765707
-0.080885656 0.072075836 0.013043852
0.048228115 0.075746112 0.013323922
0.05558126 0.072844177 0.013561713
-0.087640427 0.085414618 0.013475739
0.045813683 0.085513785 0.01316878
-0.089423031 0.094271414 0.013430113
0.044250466 0.096091881 0.013565128
0.045328524 0.091534615 0.012352102
-0.088019654 0.10367699 0.013379395
0.041485876 0.10356003 0.013162609
-0.091782294 0.11449096 0.013882771
-0.08785399 0.11063486 0.013334037
0.034318153 0.11505698 0.013520865
0.037807748 0.11023454 0.013401517
-0.093445271 0.12142331 0.013284993
-0.029034987 0.12563135 0.013947094
-0.02570725 0.12574163 0.014985749
0.02449757 0.12435903 0.013503043
0.029896108 0.11992756 0.013594352
-0.092385083 0.13027252 0.013238735
-0.046318773 0.13298137 0.013342015
-0.040754579 0.12847437 0.013473878
-0.033383537 0.12677942 0.013238474
-0.021675656 0.12708417 0.013113164
-0.013371683 0.12930736 0.013544213
-0.0043468159 0.13093953 0.013628259
0.0047367266 0.13155907 0.013599374
0.01365149 0.12978733 0.013475372
0.01998408 0.12706532 0.01356457
-0.090724133 0.13860543 0.01526097
-0.088729478 0.13971449 0.011320004
-0.049084138 0.13914904 0.013561034
-0.090857394 0.14760984 0.014995674
-0.08824528 0.14965072 0.011983954
-0.050619233 0.14896478 0.013324815
-0.083407857 0.15401936 0.014278721
-0.076322086 0.15568642 0.013635967
-0.067544535 0.15607558 0.013541858
-0.058317851 0.15563245 0.013641425
-0.05063685 0.15528631 0.010785121
-0.063942969 0.035087109 0.023498416
-0.058730818 0.034106955 0.022221286
-0.052380927 0.033766292 0.024151342
-0.038796093 0.034623947 0.024479801
-0.033134513 0.034330171 0.022022236
0.00546824 0.034916144 0.021523802
0.012924877 0.034695644 0.023514848
0.022390088 0.035084981 0.022033632
0.028707821 0.035597403 0.018733559
-0.064210147 0.039115913 0.025952514
-0.059376277 0.041201018 0.021905379
-0.053210974 0.044825278 0.020182475
-0.028369885 0.03761293 0.02332039
-0.022519654 0.038112935 0.022597332
-0.013567263 0.038364369 0.022605268
-0.0043627876 0.038450278 0.022390587
0.0029429954 0.037573859 0.024088264
0.024734961 0.036682174 0.024582852
0.031745154 0.037897836 0.022979172
0.04056086 0.041027628 0.022734009
0.047015872 0.04364901 0.021274218
-0.055987213 0.046009723 0.025552399
-0.051894397 0.049881045 0.022385158
0.050854467 0.047941007 0.02369334
0.055963699 0.051834606 0.021362118
-0.065970488 0.061784744 0.021082968
-0.058923073 0.060208447 0.022552693
-0.052155323 0.05621976 0.023158412
0.057951096 0.058736712 0.022441624
-0.07547003 0.068862736 0.022004589
-0.069165871 0.064774729 0.023937754
-0.062891603 0.063101597 0.026890101
0.043779232 0.069150746 0.02581932
0.049535207 0.069545493 0.024019826
0.057513144 0.067206599 0.022037236
-0.08307685 0.078085288 0.021815743
-0.079606734 0.073949419 0.023284124
0.044221558 0.076125383 0.024852296
0.047230348 0.0761334 0.020338416
0.055129476 0.072422549 0.019090176
-0.086335033 0.085601382 0.022672387
0.044239514 0.085902996 0.02430108
0.045360364 0.08495263 0.019887617
-0.088429011 0.094318844 0.022389449
0.043378945 0.094500944 0.022161651
-0.086351283 0.10348191 0.022723913
0.04006362 0.10362471 0.022469759
-0.091472402 0.11501842 0.021620672
-0.086976029 0.11157086 0.02288631
0.033944447 0.1141386 0.022959102
0.037244901 0.1095673 0.022178169
-0.093940377 0.12147329 0.022285767
-0.045914255 0.12393809 0.025666337
-0.04055953 0.12422551 0.023630066
-0.031535771 0.12345708 0.022674322
-0.023335265 0.1240559 0.022904124
-0.0172446 0.125403 0.025670165
0.0172444 0.125917 0.0260258
0.023341602 0.12377617 0.023129344
0.029489715 0.11935558 0.022199871
-0.092799604 0.13033842 0.022238893
-0.047236137 0.13131006 0.023124922
-0.041128121 0.12700063 0.019283576
-0.034338605 0.12614566 0.018535666
-0.019658327 0.12667356 0.019897744
-0.013267051 0.1281745 0.022283452
-0.0044189431 0.12992778 0.022655338
0.0046225796 0.13035218 0.022512633
0.013558827 0.12866825 0.022476673
0.019449677 0.12665123 0.020463191
-0.090868391 0.13976768 0.021594457
-0.089501567 0.13730967 0.025113614
-0.051412821 0.13923454 0.022518881
-0.091162182 0.14707036 0.022165116
-0.087799221 0.15144967 0.023099434
-0.05424583 0.14965515 0.025480101
-0.053138234 0.14845601 0.021709509
-0.082948767 0.15401942 0.021970294
-0.076489151 0.15550999 0.0225337
-0.067612991 0.15609261 0.022648292
-0.058592685 0.15496616 0.02233658
-0.0539979 0.15316799 0.0186815
-0.065115921 0.03482784 0.031856157
-0.058372274 0.034325629 0.031467494
-0.049275216 0.034386292 0.031444922
-0.040417843 0.034353334 0.031388655
-0.034217235 0.034883767 0.030400265
0.013847127 0.034973457 0.031355869
0.019694678 0.035314471 0.030608552
-0.065142304 0.040855303 0.032127939
-0.062262259 0.044120498 0.028880637
-0.029390994 0.038116537 0.031245336
-0.022325255 0.03858389 0.031493023
-0.013250303 0.038814712 0.031617392
-0.0043909866 0.03902236 0.031565569
0.0047066757 0.038887065 0.030626822
0.0098262792 0.036999188 0.030837957
0.02433808 0.038703911 0.032405887
0.030716324 0.042264465 0.029946934
0.038633805 0.043506447 0.028656188
-0.058854531 0.046896957 0.031826209
-0.051817272 0.051054496 0.031930998
0.032788273 0.049049448 0.032785192
0.040678039 0.04886926 0.031370319
0.047854792 0.050767079 0.029439704
-0.057375476 0.062495835 0.028652508
-0.050845571 0.058682643 0.031893916
0.034983531 0.056150362 0.034991618
0.040136579 0.058369912 0.031717278
0.049793422 0.05857864 0.030143252
0.054722734 0.059516378 0.027465558
-0.073824063 0.070579879 0.029355898
-0.067373291 0.067875572 0.031524282
-0.059014715 0.065165564 0.032658856
-0.052128427 0.064660102 0.034484509
0.040423911 0.066990435 0.031309474
0.049827904 0.064943582 0.028252253
0.054600369 0.063994266 0.0273223
-0.081947878 0.0793451 0.028564921
-0.07694535 0.076495193 0.032079313
-0.071211904 0.072835997 0.035146877
0.040704839 0.076589644 0.031602621
-0.08313071 0.085963555 0.030070031
-0.079816692 0.085289888 0.034509219
0.040747404 0.085549012 0.031522214
-0.083768271 0.094565421 0.030274028
-0.079627044 0.094649054 0.034761798
0.035685301 0.098124653 0.035095602
0.039522711 0.094237931 0.031220285
-0.082894534 0.10275932 0.029161086
-0.078715995 0.10379951 0.033309031
0.033612698 0.10439605 0.033426646
0.037701327 0.10226855 0.02944853
-0.091068089 0.11540031 0.032433681
-0.085400879 0.11171908 0.031172451
-0.079562254 0.10877891 0.033751879
-0.055492051 0.1141052 0.03555413
-0.04981808 0.11476818 0.034162711
-0.040412739 0.1144981 0.033978522
-0.031620424 0.11464035 0.033799656
-0.02468759 0.11566377 0.03443813
0.023877794 0.11494864 0.034260627
0.030950535 0.11219537 0.030895803
-0.092550233 0.12150099 0.031284448
-0.054071799 0.118333 0.0357708
-0.049448129 0.12156834 0.031634461
-0.04012787 0.11990748 0.029484063
-0.031559858 0.11938817 0.029503375
-0.021945156 0.12059537 0.03085693
-0.013788713 0.12308921 0.032025952
-0.0044440222 0.12388856 0.033847086
0.0049474067 0.1237404 0.033789814
0.013850635 0.12242831 0.032783862
0.022066178 0.12056448 0.030628746
0.028421683 0.11770717 0.028256647
-0.091435693 0.12993431 0.031049572
-0.089847565 0.13379534 0.032715615
-0.055432715 0.13232061 0.034977742
-0.050804146 0.13026662 0.031142397
-0.010706312 0.12661172 0.028323729
-0.0040310323 0.12734842 0.029255155
0.0044617932 0.12741731 0.029242178
0.011796722 0.12703666 0.0285332
-0.090446763 0.14215919 0.027767818
-0.089422926 0.13901381 0.031502202
-0.057489596 0.13973233 0.032453876
-0.052926645 0.13731082 0.028496945
-0.090349793 0.14485632 0.027787767
-0.086020678 0.14848585 0.031342957
-0.077179223 0.15195391 0.034102336
-0.067326069 0.15237801 0.035171401
-0.057488013 0.14920895 0.031717062
-0.081724897 0.153192 0.027965
-0.075781137 0.15405595 0.02978728
-0.067414701 0.1543614 0.030618336
-0.059944406 0.15396403 0.029710423
-0.064426981 0.035100225 0.039018117
-0.058589533 0.034597211 0.040672868
-0.049568858 0.034698624 0.040847514
-0.040523969 0.034845691 0.040321983
-0.0324439 0.034634061 0.041420285
-0.022692189 0.034818113 0.044112727
-0.0128608 0.034822159 0.043740399
-0.0041938112 0.034742992 0.042550534
0.0050695697 0.034765184 0.041293487
0.01311006 0.034985892 0.040075321
0.018737733 0.035615567 0.037713367
-0.064598724 0.039385315 0.039116632
-0.060884356 0.041856792 0.043002039
-0.048093881 0.041991234 0.044271149
-0.040347353 0.04058449 0.043117084
-0.0320324 0.0416946 0.040160451
-0.022531159 0.039069295 0.037829947
-0.014411745 0.039291829 0.037845302
-0.0065924702 0.039390028 0.036857333
0.014292258 0.040536441 0.044176701
0.022002382 0.041418295 0.040114772
0.027541099 0.044881001 0.036026198
-0.057498809 0.046934657 0.039861027
-0.049070597 0.048525937 0.039534997
-0.040433586 0.049194936 0.039832894
-0.032193296 0.050142355 0.040248338
-0.024410591 0.052338906 0.041970685
0.015702305 0.047353122 0.043875102
0.022961313 0.049600907 0.040938165
0.029067455 0.050925236 0.0375183
-0.046591025 0.058764711 0.037643306
-0.040744513 0.058629673 0.040054042
-0.031341959 0.05817261 0.03782928
-0.024593977 0.058545332 0.041186452
0.025235318 0.057824817 0.043755401
0.03119988 0.058719922 0.039828833
0.036219649 0.061221853 0.036454801
-0.065112829 0.070870236 0.036666613
-0.058385536 0.069775514 0.037980597
-0.048990082 0.068373144 0.038877733
-0.040612563 0.067644894 0.041482959
-0.031436287 0.06757234 0.039852638
-0.025308179 0.066386819 0.042219426
0.025860727 0.067062512 0.044276133
0.031798244 0.067326181 0.040653236
0.036886171 0.067623325 0.0366432
-0.073559172 0.079033054 0.03739031
-0.067398652 0.076549731 0.03950562
-0.058527686 0.076383241 0.042220693
-0.049693841 0.07654646 0.042754985
-0.040497947 0.076891169 0.042587414
-0.031244945 0.076548688 0.041929308
-0.026472479 0.072710477 0.043832719
0.026405802 0.073154397 0.044621166
0.031927638 0.076779902 0.041934572
0.036757343 0.076764174 0.037345249
-0.075538084 0.085656017 0.038510405
-0.067836136 0.085369661 0.042921022
-0.058729064 0.085111879 0.044312187
-0.048161302 0.08442653 0.04434498
-0.040493947 0.085353613 0.043160416
-0.032426469 0.085270435 0.04306211
0.032181028 0.085478753 0.04192052
0.036786541 0.085835293 0.037234232
-0.075284012 0.093931869 0.038879279
-0.067755267 0.094402276 0.042475756
-0.058304448 0.096078023 0.043801542
-0.049490802 0.094572447 0.043856114
-0.040490571 0.094495147 0.04276561
-0.031711973 0.094670072 0.044236753
-0.023715574 0.097448409 0.044463925
0.025991887 0.097189561 0.043894313
0.031735569 0.094233878 0.040899441
0.036749788 0.091702208 0.037021562
-0.074289076 0.10307316 0.037300251
-0.067690693 0.10333067 0.039790798
-0.058496263 0.10360627 0.041447584
-0.0494975 0.1035913 0.041081708
-0.040489122 0.10356602 0.040491417
-0.031500451 0.10360097 0.041274209
-0.022445334 0.10362586 0.042982612
-0.013824313 0.10354699 0.043512456
-0.0042985687 0.10402603 0.043989595
0.0040581836 0.1048212 0.043062918
0.013541292 0.10581907 0.043257438
0.022963066 0.1039163 0.041634135
0.029710967 0.10259246 0.038227383
-0.09117572 0.11534605 0.039666921
-0.08580827 0.11195126 0.040931582
-0.076774828 0.10954452 0.040927138
-0.067308865 0.11096432 0.039943095
-0.059147347 0.11275508 0.037723094
-0.049499273 0.10980422 0.038023256
-0.04060097 0.10974801 0.037485242
-0.031364411 0.10988556 0.037551075
-0.021949707 0.1118665 0.038854446
-0.01349242 0.112748 0.04047313
-0.0044935998 0.11279444 0.041685626
0.0047797281 0.11259961 0.040836293
0.013303434 0.11279027 0.03865324
0.021677803 0.11100897 0.037713122
0.027920732 0.10921234 0.036450636
-0.092307962 0.12155622 0.040487848
-0.063502654 0.1170545 0.044280849
-0.058667693 0.12195933 0.040618088
-0.053423449 0.12265 0.036487166
-0.012246612 0.11912861 0.037010338
-0.0044936687 0.11968117 0.037781019
0.0042443089 0.11955404 0.037329361
0.011436487 0.1184934 0.036504664
-0.09087757 0.12935397 0.039034732
-0.089052863 0.13161054 0.042378087
-0.064618573 0.13136816 0.042757738
-0.059213672 0.12992926 0.038901333
-0.053876001 0.126919 0.0361236
-0.086885132 0.1394445 0.040509798
-0.080171131 0.14299534 0.044466238
-0.065779477 0.13989422 0.041500896
-0.0618104 0.14000206 0.036806233
-0.083273061 0.14612429 0.03849614
-0.076536626 0.1476422 0.040699758
-0.067923799 0.14814703 0.039674044
-0.061470136 0.14767389 0.036886781
-0.056856744 0.035549507 0.045789327
-0.050265085 0.035711352 0.045614298
-0.030850355 0.035144761 0.048394427
-0.022807537 0.035009906 0.049315464
-0.013787832 0.035011865 0.048150718
-0.0049122982 0.035131246 0.046791028
0.0026448409 0.035492964 0.045752026
-0.057081681 0.039660223 0.046240002
-0.050641038 0.038798112 0.04599091
-0.036625277 0.038094334 0.045545161
-0.031807244 0.040311567 0.050083138
-0.021571858 0.041433599 0.053165618
-0.013334276 0.040843803 0.050739963
-0.0044685844 0.040774722 0.047906931
0.0042907191 0.040698033 0.045886178
0.0098504573 0.04030579 0.045113977
-0.02940104 0.047132783 0.047508825
-0.021972857 0.048659716 0.049045764
-0.013500356 0.049447723 0.049373548
-0.0048499438 0.04918927 0.050427139
0.0045743897 0.049585849 0.051054832
0.012641848 0.050449684 0.048154902
0.019870175 0.053016201 0.046135373
-0.020123215 0.058812764 0.047728155
-0.01435772 0.058008697 0.052018661
-0.0062279706 0.055910658 0.053554658
0.005931518 0.056623045 0.053311862
0.013276598 0.058135174 0.050876848
0.021098452 0.058825582 0.04733922
-0.021439588 0.067751244 0.049276035
-0.015984306 0.065506682 0.053352844
0.014544774 0.066757977 0.052187286
0.021414485 0.067469127 0.04787622
-0.027706372 0.079348996 0.046737082
-0.02419248 0.075679563 0.050245646
0.015729794 0.076410368 0.053170968
0.022412058 0.076900236 0.049525324
0.027465437 0.078686044 0.045690339
-0.063483104 0.088318847 0.045134101
-0.057930499 0.086304687 0.045184363
-0.050831441 0.086533546 0.045327667
-0.028001638 0.085405082 0.04719824
-0.025204426 0.086069427 0.051754557
0.015010228 0.085383326 0.052183289
0.022309083 0.085755646 0.048871469
0.02743696 0.085039422 0.04573882
-0.063485302 0.090421602 0.045100201
-0.058877956 0.091646634 0.045251984
-0.027965585 0.092767052 0.045454737
-0.022479076 0.093422569 0.049262613
-0.014284074 0.09692616 0.050805785
-0.0043397271 0.097637601 0.052454818
0.004851345 0.096455224 0.051665533
0.013861125 0.093722969 0.050331224
0.022245575 0.094194226 0.046883225
0.027396001 0.090232901 0.0450202
-0.010686357 0.099718213 0.047571376
-0.0038758358 0.10020331 0.047833826
0.0044765966 0.10045213 0.047200471
0.013579174 0.10123821 0.046964657
0.020016663 0.10067114 0.045736466
-0.084901631 0.11476209 0.046605937
-0.076404132 0.11367235 0.048536025
-0.068918444 0.11398108 0.048378684
-0.090513125 0.12091625 0.045061823
-0.085841879 0.12175722 0.048273191
-0.076802082 0.12091509 0.052036606
-0.066856235 0.12139818 0.050354961
-0.08474315 0.13036688 0.049116738
-0.076227292 0.13036191 0.052282713
-0.068513826 0.13003527 0.048773754
-0.083426684 0.13702057 0.046991657
-0.076506689 0.13908663 0.048261877
-0.070032313 0.1385462 0.046834935
-0.074495196 0.14418399 0.045021601
-0.024475642 0.038713261 0.054129027
-0.0016629553 0.053001452 0.054398969
0.00049714901 0.0534577 0.054116301
-0.011215317 0.060991507 0.054814652
-0.0040548127 0.058995314 0.055024091
0.003368333 0.059855305 0.055284724
0.0094644902 0.061692301 0.0540126
-0.0185051 0.071143799 0.054021701
-0.012668099 0.068223752 0.054978762
-0.0044986913 0.067562573 0.056661304
0.0046727103 0.067326017 0.05594711
0.010404083 0.068483695 0.0545968
-0.020207029 0.077366278 0.055193994
-0.013498009 0.076596454 0.056704596
-0.0044994801 0.07670816 0.058163874
0.0045141797 0.076577149 0.0564867
0.011437343 0.076642238 0.054795753
-0.021095565 0.084807403 0.055827264
-0.013497704 0.085646011 0.057107195
-0.004496661 0.085653454 0.057167545
0.0046706772 0.085437931 0.056429718
0.010458357 0.086227156 0.05475546
-0.01913994 0.091027722 0.05463298
-0.013045072 0.092744119 0.055550504
-0.0044968929 0.09321744 0.05568276
0.0032846685 0.092590548 0.054831162
0 0 0 1 0 0 0 1 0 0 0 1 0 0 0 0 0 983 1 0 0
