ply
format ascii 1.0
comment PCL generated
element vertex 1329
property float x
property float y
property float z
element camera 0
property float view_px
property float view_py
property float view_pz
property float x_axisx
property float x_axisy
property float x_axisz
property float y_axisx
property float y_axisy
property float y_axisz
property float z_axisx
property float z_axisy
property float z_axisz
property float focal
property float scalex
property float scaley
property float centerx
property float centery
property int viewportx
property int viewporty
property float k1
property float k2
end_header
-0.0423081 0.033846274 0.026698176
-0.037842657 0.034495998 0.026304727
-0.03431293 0.034289263 0.026207671
-0.031493232 0.035455298 0.025755733
0.0068681324 0.035508748 0.0249903
0.010112627 0.034992784 0.026156384
0.013809113 0.034712523 0.025761049
0.0182094 0.034912802 0.026177242
0.021818951 0.035353847 0.025685962
-0.064968005 0.037667681 0.026034679
-0.062962994 0.038853399 0.02521505
-0.029083401 0.037816498 0.026534418
-0.026105329 0.038095038 0.025938582
-0.021846889 0.038274374 0.026111824
-0.0178902 0.038394991 0.025915001
-0.014178723 0.03847868 0.026000088
-0.0097323656 0.038562156 0.026235579
-0.0062046321 0.03862248 0.025700744
-0.001946366 0.038772926 0.02613705
0.002282613 0.038614273 0.025789453
0.0056574638 0.03764857 0.026442027
0.0085407346 0.0365537 0.027561199
0.0236405 0.0366106 0.026972
0.026095344 0.037288021 0.025843987
0.029863577 0.038759112 0.026073111
0.033499882 0.03942978 0.02535652
0.0362342 0.039874099 0.024793699
-0.064304702 0.040885333 0.027338436
-0.062309444 0.041897498 0.025806356
-0.058400501 0.0439707 0.0246877
0.0308953 0.0400111 0.027214199
0.034193274 0.040955238 0.027040362
0.038314834 0.041232388 0.0258181
0.041618269 0.042987205 0.026134945
0.044773899 0.0438422 0.024803899
-0.060744449 0.044220202 0.027188249
-0.057862651 0.045325115 0.026348032
-0.054550786 0.047198616 0.025954558
0.042786699 0.0445146 0.027427001
0.046138562 0.045607749 0.026178606
0.048616868 0.046593469 0.025154533
-0.052654568 0.050425831 0.0261501
0.050251242 0.049260367 0.026269872
0.052640948 0.050680097 0.024931526
-0.0521034 0.054447029 0.026002638
-0.0519883 0.054568101 0.027638501
0.051941801 0.0525693 0.027488699
0.054219797 0.053949498 0.026053531
0.056033701 0.0553031 0.024595199
-0.052626502 0.058203366 0.026068799
0.055101689 0.058148265 0.026824143
0.056638837 0.058075007 0.024631934
-0.065287761 0.063422345 0.025601013
-0.061894324 0.062502816 0.02598249
-0.058259863 0.061474007 0.02573226
-0.054700926 0.060989723 0.026901951
0.055052672 0.0624162 0.027299274
0.05676185 0.062021449 0.025512815
-0.07250727 0.067631997 0.025052166
-0.069873169 0.066128276 0.025811624
-0.066834144 0.064732142 0.026651699
0.042820379 0.066163801 0.027267246
0.045828376 0.066830583 0.026475329
0.050004963 0.067158028 0.027024513
0.054159634 0.06628722 0.026457883
0.056761425 0.065505728 0.024893001
-0.076831296 0.071306333 0.025649359
-0.074506901 0.069470204 0.026258649
-0.0719603 0.068162598 0.0276375
0.043108683 0.069680229 0.026659392
0.045662679 0.069137521 0.0247961
0.049995273 0.069266245 0.025079099
0.053773489 0.069091938 0.02464273
-0.0802055 0.075481303 0.024867
-0.078553483 0.073822863 0.02619409
0.043410648 0.073684782 0.02664645
0.044094298 0.073586337 0.0249309
-0.081812233 0.077996187 0.025924355
-0.079976 0.076531999 0.027530299
0.043448549 0.077742405 0.026739551
0.044396278 0.077916101 0.02473354
-0.084337726 0.082638435 0.025778888
-0.083541892 0.080852732 0.026591232
0.043543827 0.08203312 0.026902286
0.044426266 0.081889518 0.024664151
-0.085081339 0.085653014 0.026062423
0.043519702 0.085951164 0.026525075
0.04430712 0.085827231 0.024554281
-0.086443789 0.089540154 0.026055716
0.042964619 0.090157993 0.026068879
-0.086931758 0.093733571 0.026135726
0.042438738 0.094273791 0.025910048
-0.086656369 0.097900912 0.026004
0.039873999 0.099613652 0.027476899
0.041212656 0.098316886 0.025663519
-0.085757926 0.101877 0.025751458
-0.083930999 0.103265 0.0277985
0.039383713 0.10217413 0.026706502
0.040528275 0.10139699 0.024423249
-0.08461 0.10558674 0.025123801
-0.083246879 0.10654233 0.026870044
0.038350109 0.10572054 0.025877338
-0.085083835 0.110955 0.025751777
-0.083295599 0.109307 0.02661125
0.035125561 0.11060224 0.026776975
0.036818225 0.10906267 0.025303846
-0.089587219 0.11477046 0.025824701
-0.086938798 0.11276733 0.025957918
0.031700648 0.1155945 0.0263987
0.03350915 0.11356538 0.025927229
-0.092597932 0.118287 0.025458099
-0.091362 0.116732 0.026156459
0.026884133 0.11960233 0.027211899
0.029885706 0.11778049 0.025981346
-0.093535453 0.121481 0.025793634
-0.045610577 0.12242241 0.026339054
-0.042042539 0.12248887 0.025940061
-0.038009521 0.12296178 0.02648164
-0.033846345 0.12227377 0.026089761
-0.030042119 0.12118928 0.026025347
-0.026063498 0.1217 0.026334856
-0.022523377 0.12299075 0.02611335
-0.019129049 0.12367401 0.027479049
0.022420788 0.12338899 0.026324002
0.025565501 0.12147469 0.025801066
0.028003801 0.120349 0.024295
-0.09362039 0.12556082 0.025773684
-0.04653937 0.12612644 0.026030945
-0.037722751 0.124091 0.024491102
-0.0201538 0.1244055 0.024891201
-0.017634399 0.1251445 0.02577945
-0.014156112 0.12661263 0.026072325
-0.01081364 0.1273364 0.026855022
0.0111571 0.12789699 0.027449049
0.014520656 0.12717089 0.026614511
0.017812677 0.1255983 0.026010714
0.020821881 0.12475801 0.025048802
-0.092773058 0.12954819 0.025612511
-0.091865398 0.13103899 0.0272344
-0.048466474 0.13140075 0.026812125
-0.047260541 0.1295118 0.02567091
-0.0122087 0.12813701 0.024013899
-0.0094995918 0.1283896 0.025571462
-0.005990569 0.12892859 0.025880197
-0.0021364691 0.12916 0.026182037
0.0018291548 0.1293499 0.026032673
0.0058558602 0.12928237 0.026047736
0.0097321877 0.12894319 0.025750965
0.013031875 0.1283415 0.024828751
-0.090691268 0.13377076 0.025718911
-0.049923167 0.13438258 0.026112884
-0.089328654 0.13788542 0.025691658
-0.052648675 0.13826251 0.026591336
-0.05145546 0.13688698 0.025317218
-0.090717927 0.14207062 0.025779855
-0.053297583 0.14166959 0.025919342
-0.090834104 0.14589639 0.025849666
-0.054122683 0.14621557 0.025904609
-0.08925157 0.14936171 0.025438117
-0.087073497 0.15111186 0.026048226
-0.054172125 0.15019833 0.026059179
-0.0851283 0.15236899 0.025817567
-0.082137369 0.15355134 0.025985997
-0.07809668 0.15471798 0.026164277
-0.074183241 0.15542971 0.026027581
-0.070359156 0.15563157 0.026520986
-0.065728627 0.1556142 0.026355779
-0.06191944 0.15531355 0.025831582
-0.057970289 0.15445045 0.026058728
-0.055059072 0.15300201 0.025548114
-0.069705628 0.1560545 0.024662899
-0.066553399 0.15608799 0.0243177
-0.065402672 0.034862559 0.030152271
-0.061732553 0.034303173 0.03012494
-0.058053039 0.034264471 0.029902456
-0.053969335 0.034341075 0.029984001
-0.049745183 0.034362789 0.029977711
-0.045771502 0.034314763 0.029759476
-0.042026803 0.034300216 0.029897472
-0.037985723 0.03428939 0.029874435
-0.034070048 0.034988087 0.030092001
0.01127575 0.035643227 0.029837275
0.013870271 0.03486567 0.029799268
0.017951144 0.035011124 0.030089056
0.020824233 0.035558432 0.029754432
-0.066054277 0.038632877 0.030311288
-0.02987057 0.037957244 0.030266445
-0.025716035 0.03837258 0.030323276
-0.022175832 0.038462069 0.029773023
-0.017922264 0.038610213 0.030216128
-0.01399569 0.038675703 0.03006414
-0.010061949 0.038757514 0.029898524
-0.0058335597 0.038877361 0.030118588
-0.0022784323 0.038966127 0.029806832
0.0020185092 0.039193437 0.030184701
0.0061813523 0.038983651 0.029665025
0.0094540883 0.037353359 0.03010397
0.022985425 0.036930677 0.0301691
0.025766773 0.038521729 0.029366657
-0.064599097 0.041911859 0.03043461
-0.063563198 0.04315795 0.029173501
0.027123699 0.040301733 0.0309586
0.030180821 0.042099256 0.02971415
0.0340892 0.04299758 0.028801862
0.037558768 0.042984832 0.028634781
-0.061946552 0.044967789 0.030396143
-0.058363665 0.046794683 0.030007316
-0.055584252 0.047915101 0.029166199
0.031266399 0.045693778 0.031273298
0.033817932 0.045808233 0.030381199
0.038105752 0.04556644 0.030584287
0.041857731 0.046063296 0.030032709
0.044958565 0.046628203 0.028445033
-0.0567258 0.048040502 0.031668399
-0.052893292 0.05018897 0.029956112
-0.051802199 0.05169135 0.030942749
0.034852203 0.049333718 0.031351466
0.037368663 0.049867585 0.031747688
0.043157049 0.0482594 0.031436101
0.046042394 0.04960791 0.030348016
0.048893541 0.050575502 0.02868456
-0.051481225 0.054372318 0.0302187
0.035530899 0.052720498 0.031989999
0.03789413 0.054168917 0.03161275
0.040494099 0.055558201 0.0318463
0.047029417 0.053698063 0.03163578
0.04984457 0.053991221 0.029743612
0.0525181 0.054719202 0.028348599
-0.052226402 0.059015602 0.0286349
-0.051452152 0.058289833 0.03041783
0.038765151 0.057848051 0.031219672
0.042001959 0.058328032 0.031147385
0.046172123 0.058813944 0.031586811
0.049985651 0.058080517 0.03043551
0.053013876 0.05835456 0.028878
-0.061562739 0.06364122 0.028807322
-0.05794837 0.063032731 0.029605845
-0.053915862 0.06231907 0.030174378
-0.051511846 0.061245449 0.031377651
0.03944058 0.061416917 0.03123424
0.041708004 0.062246528 0.029380474
0.045993879 0.062456831 0.029820859
0.050335679 0.062383939 0.029686125
0.053078543 0.062023487 0.0287126
-0.069380991 0.067285649 0.0289269
-0.066040419 0.065993652 0.02992486
-0.06227883 0.06480141 0.030638481
-0.0590849 0.064413697 0.0318252
0.040828131 0.065705366 0.029939042
0.046989352 0.065152198 0.028291151
0.050009225 0.065149821 0.028409075
0.0523558 0.064799197 0.028140699
-0.073736005 0.070600189 0.029599337
-0.070392892 0.068871841 0.030673433
0.041187994 0.069886237 0.030134393
-0.077118605 0.074326329 0.029685671
-0.075051703 0.072683156 0.030964976
0.041836783 0.073826998 0.029680824
-0.080983534 0.078452602 0.029124638
-0.07905934 0.077568322 0.030563701
0.041848738 0.077875502 0.029742485
-0.082175329 0.081666604 0.030243214
0.041934449 0.081931211 0.029900683
-0.0841095 0.086339697 0.0284994
-0.083191797 0.085608818 0.030157408
0.041828379 0.085956275 0.029801078
-0.084715806 0.090203933 0.028743247
-0.083248764 0.089648321 0.030539088
0.040916767 0.089980692 0.030276217
-0.084908836 0.093849972 0.029065324
-0.083317675 0.09391737 0.031001518
0.039745066 0.094039269 0.031267032
0.04081713 0.094149396 0.02914932
-0.084707588 0.097734869 0.028919738
-0.082899481 0.098139018 0.030981902
0.038887758 0.098150663 0.030387569
0.040321302 0.097240962 0.028373634
-0.084310055 0.1012515 0.0282382
-0.082176037 0.10199346 0.030319225
0.0353682 0.103387 0.031987298
0.037571929 0.1020143 0.02988537
-0.081280403 0.10597055 0.029730933
-0.079624139 0.10566067 0.031687066
0.034835808 0.10633133 0.030615846
0.036671519 0.10556649 0.02885385
-0.084647328 0.11164767 0.030090466
-0.082090266 0.10997272 0.030046642
0.031521101 0.1107395 0.031679802
0.033471461 0.10993385 0.029756367
-0.089345753 0.11444717 0.030059449
-0.08673504 0.11273263 0.029936388
0.0277557 0.11564299 0.0314884
0.030272551 0.1142243 0.030262001
0.032299865 0.11287 0.028911434
-0.092196666 0.118346 0.0309716
-0.091288596 0.11711555 0.029419459
-0.048984438 0.11882871 0.031220315
-0.046457376 0.11837066 0.030246424
-0.042001437 0.11866175 0.03056174
-0.037831753 0.11846589 0.030967841
-0.033937588 0.11867183 0.030466499
-0.029853972 0.11868892 0.030023463
-0.026312046 0.11901511 0.030710777
-0.023546699 0.119499 0.031653699
0.02345 0.1193555 0.031435851
0.02601012 0.1179904 0.030216657
0.028550999 0.11682266 0.029264903
-0.092543751 0.121488 0.029785169
-0.048804928 0.12254786 0.030578971
-0.047588263 0.12221084 0.028522601
-0.041455001 0.120697 0.028430032
-0.037589159 0.12107215 0.028944671
-0.034137551 0.12043325 0.028817274
-0.025044434 0.120774 0.028853169
-0.021639802 0.12163166 0.029730354
-0.01809008 0.1225567 0.030460721
-0.014785575 0.12371675 0.0310697
0.015213 0.12354975 0.031045325
0.018154318 0.12297082 0.030024463
0.021829098 0.12163702 0.030120453
0.024626849 0.120537 0.028758099
-0.092576228 0.12556432 0.029764349
-0.048923612 0.12597425 0.030774062
-0.047522649 0.12537199 0.02854025
-0.0172476 0.12413 0.028115099
-0.013646574 0.12488663 0.029759899
-0.0096958671 0.12571055 0.030216197
-0.0061151232 0.12648422 0.030283021
-0.00203946 0.12689379 0.0302979
0.001837565 0.1268605 0.030233329
0.0059036836 0.1269235 0.029930158
0.0099294959 0.12635817 0.030170493
0.013788008 0.12553707 0.02972516
0.0166765 0.12456 0.0286792
-0.0922295 0.12864825 0.028985625
-0.091539189 0.13018712 0.030111751
-0.049507558 0.12967062 0.030147417
-0.0042588199 0.12803499 0.0283342
-0.00041852699 0.12818301 0.028244199
0.0032397599 0.128177 0.0281353
0.0069493898 0.128215 0.0280149
-0.090058886 0.13378209 0.029716035
-0.053010497 0.13452072 0.031114927
-0.05090002 0.13343379 0.029294381
-0.089295864 0.13790341 0.029692769
-0.056549668 0.13910033 0.031698633
-0.054340985 0.13782778 0.029866915
-0.089768231 0.14197741 0.029753307
-0.056615766 0.14244066 0.031311985
-0.05494161 0.14242412 0.029324111
-0.088999622 0.14571242 0.02992289
-0.087562203 0.147255 0.031484898
-0.056549624 0.14604326 0.031452972
-0.055061758 0.14609858 0.029209742
-0.0885031 0.14852101 0.0281728
-0.086006366 0.15007199 0.02965763
-0.083210066 0.15143134 0.0307332
-0.05686624 0.14992385 0.031254359
-0.055632498 0.14982143 0.029068369
-0.081159495 0.15274921 0.029656202
-0.07799229 0.15354644 0.030193133
-0.074040636 0.154302 0.030080691
-0.070135295 0.15466689 0.029943978
-0.066138901 0.15454543 0.030192265
-0.062030111 0.15436827 0.029773509
-0.057945836 0.15334885 0.029908864
-0.055519301 0.15245301 0.0283051
-0.065785922 0.035063837 0.033707812
-0.062262524 0.034383237 0.033949219
-0.057902642 0.034406647 0.034336451
-0.054289222 0.034444991 0.033849686
-0.050099127 0.034529753 0.0341442
-0.046018634 0.034551457 0.033955373
-0.041859448 0.034507174 0.034156512
-0.038162809 0.03442964 0.03395009
-0.034946203 0.034849528 0.03356405
0.01118475 0.035129152 0.033889852
0.014237819 0.034760941 0.034303952
0.018189058 0.035159744 0.033880096
0.020047501 0.035568401 0.0326031
-0.066512063 0.037567835 0.034068957
-0.032524802 0.037199698 0.032926001
-0.02971415 0.038343217 0.033411801
-0.02597929 0.03868049 0.033881664
-0.02175431 0.038797617 0.034109928
-0.018222041 0.038848724 0.033834737
-0.013759023 0.038970176 0.034046181
-0.010039842 0.03907147 0.034122251
-0.0061265137 0.039114624 0.033988371
-0.0018787176 0.039274186 0.034179769
0.0017828867 0.039354846 0.033598911
0.0060257362 0.039323058 0.03287366
0.0092389872 0.037498701 0.033178527
0.022447165 0.037431322 0.033964187
0.024760252 0.039158173 0.033010449
-0.065012902 0.042203676 0.034421057
0.026430458 0.04166672 0.034002997
0.0283788 0.04324875 0.032802001
-0.062404919 0.045557741 0.034382094
-0.05914947 0.047277767 0.034098465
0.029721001 0.046196762 0.033894647
-0.057295773 0.048109278 0.034164876
-0.052896421 0.049114499 0.034454741
-0.050904907 0.050890852 0.034239501
0.031004997 0.049608532 0.034923218
0.033305313 0.050734874 0.033001091
0.039239846 0.049906448 0.032189526
0.041767076 0.050015666 0.03238681
0.044326801 0.051133402 0.032260899
-0.049571745 0.0546184 0.034150992
0.031995401 0.052021299 0.035499901
0.034421131 0.054051116 0.034145534
0.037764847 0.053762101 0.03232735
0.042131629 0.054058682 0.032320924
0.045223556 0.054303102 0.032319516
-0.049525216 0.058285523 0.034077551
0.035403218 0.057172645 0.03522256
0.036935933 0.057952002 0.033326175
0.045522701 0.056943636 0.032098804
-0.0538732 0.063452497 0.0320061
-0.049853895 0.061692338 0.034216546
0.03791881 0.061930835 0.03417341
-0.065195121 0.067200884 0.032684319
-0.061845459 0.06672816 0.033827044
-0.058035798 0.065694541 0.034013551
-0.054026775 0.064996667 0.034279808
-0.050794017 0.064683713 0.035138201
0.038840294 0.065902032 0.034115251
-0.072165251 0.07141535 0.032662049
-0.069733031 0.070568077 0.033701632
-0.06647294 0.069270924 0.034396283
-0.06359563 0.068696938 0.035355166
0.038868699 0.069943331 0.034185231
-0.076476 0.075970002 0.032232299
-0.073898651 0.07406766 0.03369746
-0.071211904 0.072835997 0.035146873
0.038892392 0.073984392 0.034246359
0.040450167 0.073927201 0.032105301
-0.077554382 0.07862255 0.033397
-0.075161636 0.077501878 0.034947619
0.039041098 0.078042626 0.034494676
0.040535435 0.077972569 0.0322395
-0.080638051 0.082466945 0.032914825
-0.078627035 0.081512779 0.034535833
0.038889132 0.081951275 0.034871839
0.040408641 0.082310013 0.032818481
-0.081111543 0.085875906 0.033292782
-0.07940042 0.0856281 0.0354665
0.038965069 0.086106636 0.034451701
0.040516932 0.086047836 0.032319199
-0.081205346 0.089917131 0.033260647
-0.079350322 0.090260729 0.035488058
0.038780879 0.090118639 0.034247112
-0.081310384 0.093989067 0.033227
-0.079115801 0.0940421 0.035269134
0.038126264 0.094214477 0.03394632
-0.081043497 0.0977365 0.033080354
-0.078761913 0.098390758 0.035016101
0.035319977 0.098924436 0.035090577
0.037060235 0.09778557 0.033271153
-0.080162652 0.101382 0.032563649
-0.078103267 0.10229201 0.034247745
0.031913299 0.103439 0.035773698
0.034264024 0.10220308 0.034210451
0.036341149 0.1007365 0.03251525
-0.077858329 0.10614657 0.033689704
-0.075737499 0.106056 0.035929602
0.031074146 0.10628557 0.035078544
0.033001438 0.10577967 0.033253178
-0.085933551 0.1113435 0.034370974
-0.081885815 0.1100146 0.033943862
-0.078837864 0.10852117 0.034497418
-0.037490301 0.111156 0.0359971
0.026767766 0.11140633 0.035368633
0.030003345 0.10999144 0.033901829
-0.09013059 0.11388584 0.034027915
-0.087826103 0.11219 0.033709701
-0.056819469 0.11344668 0.035853598
-0.053895909 0.11414657 0.035087522
-0.050135575 0.1142324 0.034520291
-0.045999516 0.11389916 0.034540761
-0.041996296 0.11391008 0.034672119
-0.03798775 0.11390117 0.034202944
-0.034007791 0.11388925 0.034043904
-0.03000799 0.11391025 0.034649547
-0.02602285 0.11462462 0.034662388
-0.023566101 0.115415 0.035366699
0.022666337 0.11449686 0.035145901
0.025914468 0.114047 0.03384329
0.0287607 0.11308251 0.032978751
-0.092547506 0.1177372 0.03400306
-0.091769248 0.116101 0.032816097
-0.053159911 0.118008 0.03474411
-0.050558425 0.11812768 0.032868732
-0.045000948 0.1166115 0.032115601
-0.042002097 0.11665675 0.032499701
-0.038488802 0.11665234 0.032261368
-0.033500135 0.11662534 0.032103866
-0.030001651 0.11662175 0.032308273
-0.025727922 0.11696 0.032788862
-0.022027232 0.11814149 0.033933599
-0.018206144 0.11895371 0.035024457
-0.0155019 0.119619 0.035777099
0.0115015 0.119616 0.0358941
0.01429824 0.1192974 0.03536984
0.018243141 0.1183496 0.034973778
0.021928746 0.11780693 0.033646561
0.024698701 0.1167 0.0323736
-0.092878021 0.12151776 0.033782091
-0.052346498 0.12169833 0.035382632
-0.05052257 0.12180186 0.033402685
-0.017998224 0.1209165 0.033015452
-0.013826821 0.12188622 0.033883736
-0.010154275 0.12282745 0.034161303
-0.0057678702 0.12315222 0.03479958
-0.0019587488 0.1230466 0.035044271
0.0020262557 0.12295314 0.034649227
0.0059730522 0.12264517 0.034758385
0.010296445 0.12232979 0.034555741
0.014046669 0.12176307 0.033599872
0.018231172 0.12082262 0.032922823
0.0208911 0.120687 0.032152701
-0.092324905 0.12545136 0.033715643
-0.091962501 0.126955 0.034250598
-0.052589986 0.12549166 0.03535093
-0.050875757 0.12546931 0.033434402
-0.0054876483 0.12457917 0.033037897
-0.0017574899 0.1249606 0.032740898
0.0020901812 0.12494101 0.032796901
0.0058864718 0.1248402 0.032852702
0.0097306455 0.124451 0.032640051
-0.091212742 0.12968399 0.033737417
-0.053512383 0.12995741 0.034621123
-0.05129686 0.1291506 0.032836661
-0.089894064 0.13380007 0.033716004
-0.057325836 0.13445652 0.035113074
-0.05463003 0.13351689 0.03347037
-0.089684844 0.1379234 0.033692937
-0.061162889 0.13828143 0.034975823
-0.058240417 0.13788237 0.033348929
-0.089026511 0.14200641 0.033652596
-0.060379699 0.1417665 0.035576001
-0.058813933 0.14244308 0.033405825
-0.088326648 0.1445355 0.033015549
-0.086585604 0.14630291 0.034388002
-0.058574837 0.14606425 0.033806287
-0.084988073 0.14897723 0.033107147
-0.082159705 0.15004863 0.034192208
-0.078061119 0.15137501 0.034942962
-0.071991697 0.15190899 0.035810798
-0.061595302 0.15101467 0.0355803
-0.058587756 0.14979607 0.033951357
-0.077095643 0.1525088 0.033419002
-0.073588558 0.15283121 0.033900585
-0.069527909 0.15305372 0.03392503
-0.065908894 0.15294561 0.034148037
-0.061910242 0.15292299 0.033481572
-0.0589143 0.15243833 0.032793969
-0.065112472 0.035103269 0.037776846
-0.061727099 0.034480549 0.038142502
-0.05817081 0.034417063 0.037746299
-0.053788237 0.034487791 0.038100749
-0.050264034 0.034570113 0.038001336
-0.046072878 0.034592345 0.038149033
-0.042291466 0.034538131 0.037836932
-0.037922431 0.034516826 0.038201455
-0.034335747 0.034459084 0.03798914
-0.0010735065 0.0349322 0.039651498
0.002587405 0.034832202 0.03869525
0.0059090424 0.034717802 0.038580891
0.010114783 0.034681 0.037676599
0.013993757 0.034789015 0.038248114
0.017521767 0.035239648 0.037798844
-0.065828137 0.037720952 0.037928011
-0.028561201 0.038561549 0.036131851
-0.02564205 0.038947999 0.037294749
-0.022009363 0.039096601 0.037913814
-0.017774699 0.039232798 0.038128894
-0.014245789 0.039280631 0.037858557
-0.010035037 0.039361086 0.037457485
-0.0063886652 0.039386876 0.036837876
-0.0038801299 0.0394939 0.036809798
0.019923501 0.036552198 0.038924001
0.021942755 0.038030051 0.037709042
-0.064705975 0.041315801 0.037724875
-0.063460648 0.04289015 0.038892649
0.023446258 0.040916499 0.039146863
0.025068268 0.042435374 0.037674509
-0.062046625 0.045458294 0.037742112
-0.058614679 0.047290225 0.039044455
-0.053996101 0.04778805 0.039829902
-0.049996525 0.047747675 0.039588049
-0.046000078 0.047805201 0.039727077
-0.037994675 0.0478177 0.039752722
-0.035527501 0.047850002 0.039640401
0.023527533 0.0472323 0.039613865
0.026034802 0.04614681 0.037958071
0.028493751 0.04775675 0.0365499
-0.056680098 0.048230428 0.037499364
-0.054275773 0.048705824 0.037961815
-0.049852647 0.049684621 0.037386432
-0.04600684 0.05052435 0.038433451
-0.0421726 0.050143711 0.03944777
-0.03778635 0.050308906 0.039190013
-0.034110401 0.050488625 0.038533349
-0.031297274 0.051297553 0.038639948
0.023857901 0.0490757 0.039523602
0.02598381 0.049929176 0.038695164
0.0291439 0.050047498 0.03698618
-0.0482754 0.053642035 0.036067568
-0.046089638 0.054153182 0.037792142
-0.041868504 0.053558361 0.039431427
-0.038185269 0.053685348 0.03920348
-0.033980649 0.053986538 0.037840687
-0.029856268 0.054075345 0.036781676
-0.026772453 0.053728856 0.03826594
0.02687574 0.052336 0.039354838
0.03016288 0.053535089 0.038148191
0.032463368 0.054476101 0.036805768
-0.045895617 0.057501636 0.038114764
-0.042510718 0.056974281 0.039777454
-0.037493825 0.057068672 0.039687872
-0.033987049 0.057561759 0.038508665
-0.030168854 0.057903621 0.037067555
-0.026583154 0.057693508 0.038255118
0.031013075 0.056768753 0.0394217
0.033610869 0.058025077 0.037922699
-0.0484435 0.0628471 0.036057901
-0.046217266 0.061535493 0.038131129
-0.043646902 0.0601588 0.039893199
-0.03337355 0.061672311 0.039168578
-0.029998383 0.061721358 0.037771966
-0.026743699 0.061852932 0.038623992
0.034446161 0.061838288 0.038630269
0.036302965 0.061907802 0.036584701
-0.057509199 0.067563675 0.0364636
-0.05390517 0.067062549 0.036783334
-0.049410705 0.066231266 0.037231669
-0.04626571 0.065665372 0.038957469
-0.032842565 0.06517303 0.039627433
-0.029996572 0.066022284 0.038699124
-0.027032182 0.065606706 0.039197352
0.034806091 0.066007599 0.038840007
0.03696895 0.065973684 0.036682602
-0.065661944 0.070985146 0.036535617
-0.061510537 0.070359983 0.037590098
-0.057785388 0.070159502 0.038563486
-0.054006044 0.069974609 0.038679287
-0.050330538 0.069835909 0.038839873
-0.047108501 0.068345599 0.039767601
-0.029831665 0.070005231 0.039612431
-0.027555401 0.068900198 0.039859802
0.034703124 0.070029356 0.038720649
0.036872815 0.069996916 0.036570251
-0.06978178 0.074281521 0.037113108
-0.065833025 0.073641658 0.038514521
-0.062706925 0.072744451 0.039240625
0.034646627 0.073930852 0.039330561
0.036728442 0.074068241 0.037278369
-0.073187865 0.078035265 0.037147745
-0.070116512 0.077571042 0.038842902
-0.067252897 0.076072499 0.039376099
0.035144582 0.078161031 0.039426196
0.036801267 0.078116797 0.037425801
-0.076690242 0.082446359 0.03673096
-0.073939279 0.081816889 0.038445417
-0.0711952 0.080557697 0.039776199
0.035316911 0.082346484 0.03904289
0.036881316 0.081939623 0.037057657
-0.077612415 0.086244822 0.037296932
-0.074871987 0.085879214 0.039214812
0.035198141 0.085955903 0.039383203
0.036696255 0.086172774 0.037325229
-0.077439494 0.089963622 0.037686273
-0.075392269 0.090112805 0.039433066
0.035320666 0.0907012 0.039183367
0.036798622 0.09003976 0.037292186
-0.077121571 0.093976855 0.037327975
-0.075000122 0.094349794 0.039321687
0.034752283 0.094443567 0.038398203
0.036631733 0.093304694 0.036721569
-0.076912522 0.097682811 0.036723431
-0.07447727 0.098393716 0.038507342
-0.071891598 0.099533796 0.0398851
0.031338774 0.098848797 0.039338753
0.033649046 0.097860418 0.037614498
-0.0766415 0.100814 0.036123801
-0.074083827 0.1018938 0.037476767
-0.07050167 0.10193562 0.03934814
0.027108168 0.10342967 0.039357036
0.03019331 0.10211284 0.03802143
0.032741833 0.10124 0.036386635
-0.076546498 0.107865 0.036142901
-0.07396359 0.10568714 0.037043221
-0.070014596 0.10551485 0.037990805
-0.066199563 0.10587589 0.039177321
-0.061992198 0.1070025 0.039404929
-0.0579977 0.1070455 0.039761875
-0.053995226 0.10706224 0.039850049
-0.04999873 0.106576 0.039455019
-0.0474989 0.107059 0.039958902
-0.041061819 0.106222 0.039425623
-0.037994556 0.10560182 0.038852297
-0.03438526 0.106146 0.039168037
-0.030003276 0.1070555 0.039719176
0.022918066 0.10625499 0.039657298
0.025888167 0.10600916 0.038669687
0.029030068 0.10610833 0.036874823
-0.088260204 0.111934 0.037383702
-0.086212598 0.1111149 0.038143858
-0.082232922 0.11000583 0.03802336
-0.078311771 0.1089375 0.038107611
-0.074021399 0.10879301 0.03863465
-0.069812573 0.10931747 0.038164873
-0.066142648 0.10963425 0.038023103
-0.062044904 0.10969916 0.037819043
-0.057997543 0.10976668 0.037809741
-0.053997859 0.10979349 0.037866589
-0.050000463 0.10979708 0.037941363
-0.045997322 0.10981942 0.038227875
-0.041978642 0.10982759 0.037770342
-0.038036291 0.109639 0.036984529
-0.034009259 0.10976966 0.037234027
-0.030005043 0.10979617 0.037818801
-0.026212949 0.11012499 0.038580272
-0.022309098 0.1110208 0.03952644
0.010497902 0.11057034 0.039621782
0.014000784 0.11080301 0.039528899
0.018196929 0.1101162 0.039117038
0.021969376 0.10981742 0.038307916
0.02575857 0.10967591 0.037202593
0.0285939 0.108783 0.036258299
-0.09031523 0.11376692 0.03780365
-0.064789802 0.11239 0.038642853
-0.061948441 0.11376844 0.037653439
-0.058045134 0.11442975 0.036447898
-0.026011351 0.11256775 0.0365858
-0.021882625 0.11392237 0.037594303
-0.018001685 0.11408442 0.03863601
-0.014214399 0.11491271 0.039075244
-0.0109968 0.115542 0.039634451
0.0069319857 0.1151342 0.039593261
0.009983737 0.11389538 0.038994648
0.013998135 0.11402359 0.037965942
0.018113501 0.1140854 0.037130393
0.02122988 0.1131714 0.036552437
-0.092631102 0.11748692 0.03780305
-0.060742751 0.1168545 0.03929735
-0.057829231 0.11825583 0.038835067
-0.055056777 0.11872862 0.037002686
-0.0205044 0.11679 0.036035102
-0.017705278 0.1171062 0.036597539
-0.013870792 0.1181469 0.03728098
-0.0099902088 0.11828458 0.038117494
-0.0059900042 0.11829742 0.038614351
-0.0021937131 0.1185919 0.038829494
0.0019942296 0.11829519 0.038735475
0.0059937038 0.11826233 0.037857849
0.0098859388 0.11777612 0.037242111
0.013575625 0.1172805 0.03647805
0.01699895 0.1167775 0.036191799
-0.093140535 0.12154566 0.037780914
-0.056724299 0.12174333 0.039603431
-0.054370701 0.12203801 0.037564978
-0.009485743 0.121005 0.036180202
-0.0059959199 0.1210565 0.036516074
-0.0019946813 0.1210485 0.037015449
0.0018399147 0.1211036 0.036404621
0.0074972701 0.121002 0.036076799
0.0085006198 0.121038 0.0360118
-0.092493184 0.125469 0.037621748
-0.091952503 0.126983 0.039256901
-0.056853421 0.1258156 0.039560843
-0.054699454 0.12551533 0.037580267
-0.09098509 0.12969349 0.037733141
-0.061012782 0.13054401 0.039524384
-0.057696007 0.12984616 0.038188055
-0.055299349 0.12903701 0.036717199
-0.089913495 0.13369794 0.038003378
-0.06218569 0.13411416 0.038180746
-0.058903098 0.13333102 0.0369098
-0.089174256 0.13797729 0.037835576
-0.064056762 0.13818265 0.038997699
-0.063045338 0.13814788 0.037159402
-0.088609703 0.14111561 0.036856018
-0.087166347 0.1423202 0.038413368
-0.064376868 0.14249833 0.039455235
-0.062051222 0.14259762 0.037219409
-0.085139483 0.14539534 0.037586525
-0.082102455 0.14687937 0.038745351
-0.064914741 0.14620921 0.039241999
-0.062067688 0.14608899 0.03756395
-0.059905551 0.14610401 0.0362924
-0.08112213 0.14878184 0.037157618
-0.078358948 0.14940339 0.038034502
-0.074363843 0.1502728 0.038038529
-0.069950104 0.15053493 0.038047619
-0.065960713 0.14965124 0.038096216
-0.062495887 0.14939052 0.036877092
-0.0599778 0.14825401 0.0362061
-0.064536601 0.035537049 0.04055845
-0.062099572 0.034984227 0.042106401
-0.057994284 0.034517918 0.041839227
-0.053818047 0.034531798 0.042031538
-0.04976628 0.034627568 0.042130001
-0.046026312 0.034898501 0.042375717
-0.04178182 0.035125397 0.041684698
-0.037918691 0.034991592 0.042149317
-0.033915769 0.03466275 0.041847661
-0.0304769 0.034633271 0.04217124
-0.02574395 0.034795273 0.043480951
-0.023184299 0.034848899 0.0439808
-0.016471401 0.034812801 0.043684699
-0.0140648 0.034913152 0.0432312
-0.0096704783 0.034839068 0.042742502
-0.0056434986 0.034804698 0.042156287
-0.0016996257 0.034678899 0.042441227
0.0018939557 0.034662399 0.041699216
0.0060810386 0.034684461 0.042243037
0.0098503353 0.034779981 0.041872226
0.013618622 0.035215631 0.042024687
0.016462501 0.03575255 0.041629553
-0.064707763 0.037146579 0.040736102
-0.062951572 0.038093675 0.042750243
-0.041772962 0.038139038 0.043333098
-0.038714763 0.037844911 0.043088138
0.015285749 0.036382452 0.04352925
0.018105209 0.037989113 0.042390127
0.020719517 0.038619902 0.040927049
-0.062151544 0.041967668 0.042051949
-0.059134051 0.04371205 0.043824747
-0.049009748 0.04391215 0.043675847
-0.045709521 0.042711988 0.043473728
-0.042471983 0.042403929 0.042712595
-0.038314652 0.042317394 0.042296242
0.018888149 0.042057879 0.043185379
0.021910757 0.042174134 0.041180316
-0.060953446 0.044946838 0.041134238
-0.057991482 0.045902871 0.042249803
-0.054030523 0.046353918 0.042270299
-0.050004914 0.045875348 0.042083047
-0.045997936 0.04583526 0.041427299
-0.041997492 0.04649533 0.040769693
-0.037569527 0.045584928 0.040932465
-0.034704253 0.046656769 0.042649977
0.015398321 0.045854859 0.043788057
0.018238558 0.046240289 0.042796552
0.021713454 0.04619281 0.041041002
-0.032996818 0.048886344 0.04144416
-0.030058658 0.050058238 0.042294018
-0.025849026 0.050985526 0.042844951
-0.0234839 0.0509996 0.043558799
0.01859474 0.049314681 0.0431697
0.021783078 0.049892142 0.041417722
-0.024704475 0.053844225 0.0408713
-0.02315178 0.053769857 0.042865377
0.023129473 0.052895494 0.04279983
0.025618443 0.053977378 0.041354101
0.028038699 0.0549866 0.040370502
-0.041503031 0.05842492 0.0402412
-0.038695164 0.058568079 0.040307298
-0.024684224 0.057902049 0.040979277
-0.023301184 0.057995718 0.042958435
0.026440345 0.057408992 0.042888731
0.02947185 0.058216531 0.040899653
-0.044006299 0.062969796 0.040135801
-0.042134997 0.06195946 0.040735833
-0.037995014 0.062019866 0.041150559
-0.035254326 0.062320523 0.040489428
-0.025027541 0.062113225 0.04102321
-0.023531834 0.062208366 0.043067697
0.027505724 0.061584197 0.043634374
0.03001334 0.061914917 0.041544709
0.032689251 0.062621199 0.040155999
-0.044526216 0.0664156 0.040263582
-0.041992594 0.066245921 0.04123405
-0.037996709 0.06627962 0.04165145
-0.034391709 0.066517867 0.04076593
-0.025416052 0.066390052 0.041983187
-0.023729101 0.065073296 0.043881301
0.027267579 0.066213042 0.043583937
0.030152587 0.065991245 0.041779388
0.032697435 0.065992095 0.040178265
-0.048638299 0.071685851 0.04039355
-0.046199013 0.070510238 0.041077662
-0.041996464 0.070512921 0.041917067
-0.037998699 0.070513122 0.041885387
-0.033999026 0.070453174 0.041196268
-0.030509768 0.071295567 0.0401728
-0.026543668 0.07011883 0.042094026
0.027011314 0.069954798 0.043414682
0.030025585 0.069986291 0.041623011
0.032755099 0.070033468 0.040302131
-0.064938203 0.075652897 0.04023305
-0.061891887 0.074244417 0.040697213
-0.058170244 0.073702045 0.041283563
-0.053798363 0.07341329 0.041148208
-0.050080217 0.073714897 0.041880801
-0.045996502 0.074035361 0.042107362
-0.041995637 0.074082389 0.042572901
-0.037997335 0.074037425 0.042080775
-0.034004025 0.07398852 0.041487161
-0.029727681 0.074269243 0.040915515
-0.027167115 0.073101945 0.042960972
0.027799901 0.0727164 0.043688301
0.030316787 0.0739896 0.042624261
0.032857347 0.074545264 0.040777218
-0.068769433 0.078893863 0.0403453
-0.066019401 0.078268573 0.041199692
-0.061990038 0.077554643 0.042075932
-0.058127023 0.07751108 0.043114379
-0.053797074 0.077347457 0.043137893
-0.050041601 0.077540144 0.043585654
-0.046001002 0.077595316 0.042656437
-0.041991457 0.077622101 0.042952135
-0.038007323 0.077594988 0.042545762
-0.03400385 0.077512823 0.041634142
-0.029961601 0.077492036 0.042042844
0.031095657 0.078205056 0.043251436
0.0333989 0.078189582 0.041297786
-0.069945276 0.082165122 0.041076642
-0.066247649 0.081763051 0.042888567
-0.061796345 0.081592411 0.043477539
-0.058988448 0.081887133 0.043610249
-0.048497599 0.080505103 0.043996099
-0.045799263 0.081566676 0.043190621
-0.041994408 0.081793055 0.042527381
-0.037994009 0.081878603 0.04345654
-0.034004506 0.081773706 0.042212814
-0.030855242 0.081530087 0.042099502
0.030749869 0.082346395 0.043127328
0.033401623 0.082227454 0.041335184
-0.072805054 0.086055569 0.040502131
-0.069944382 0.086163573 0.042160269
-0.067456178 0.0858135 0.043589018
-0.0589968 0.0847046 0.043947749
-0.04448567 0.086087465 0.043611601
-0.04199956 0.086024933 0.042845126
-0.037995186 0.086090088 0.043648466
-0.033996403 0.086029984 0.042753235
-0.030996485 0.086047031 0.043069869
0.030362738 0.086224854 0.043129925
0.033631571 0.086403288 0.04134921
-0.073508888 0.090262495 0.040735748
-0.069955111 0.089995064 0.042213347
-0.066975661 0.090801597 0.043553658
-0.045588277 0.090615362 0.043360814
-0.041992117 0.090246178 0.042644057
-0.038129535 0.090170451 0.043381263
-0.0342917 0.089209601 0.04367128
-0.030993799 0.088940755 0.04387195
0.030374924 0.090264708 0.043186381
0.03353839 0.090156779 0.041242201
-0.073143445 0.094000757 0.040789969
-0.070272379 0.094502769 0.041928742
-0.065996855 0.094499178 0.042847648
-0.062293161 0.095686018 0.043733399
-0.056998 0.095978551 0.043912947
-0.053495344 0.095167734 0.043746125
-0.0514936 0.095990703 0.043984398
-0.045676641 0.094395399 0.043333106
-0.041994363 0.094466366 0.042398039
-0.03811872 0.094649881 0.043242291
-0.035471398 0.0959602 0.0437897
-0.0259928 0.095978253 0.04380035
0.02771125 0.09489315 0.043737598
0.030201105 0.094341792 0.042312585
0.032825261 0.093725815 0.040580042
-0.072656333 0.097323634 0.040263664
-0.070258491 0.098135822 0.041094944
-0.06600026 0.097982354 0.042047299
-0.061997823 0.098028108 0.042764042
-0.05799856 0.098054938 0.043065514
-0.053994074 0.09805315 0.043123811
-0.050293982 0.098504245 0.043521222
-0.046158001 0.097819202 0.043079246
-0.041997712 0.097986311 0.042136062
-0.037999414 0.098007105 0.042398069
-0.034316853 0.098292291 0.043387551
-0.0294984 0.09878657 0.043699969
-0.026996676 0.098093778 0.043713551
-0.017789001 0.099820301 0.0439009
0.026460851 0.098431967 0.042812318
0.029602801 0.097965308 0.041204944
-0.06899783 0.10071249 0.040545247
-0.065993212 0.10146999 0.04134389
-0.061995018 0.10151675 0.04208675
-0.05799675 0.10155158 0.042550843
-0.053996131 0.10153001 0.042144325
-0.049998406 0.10152417 0.042012945
-0.045995716 0.10152066 0.041968096
-0.041984882 0.10149125 0.041422699
-0.038000092 0.10146492 0.041097466
-0.033998262 0.10151067 0.041915964
-0.02999551 0.10155758 0.042705122
-0.026192021 0.1018749 0.043322794
-0.021993317 0.10255999 0.043648988
-0.017745709 0.10170624 0.043694783
-0.0137857 0.10248225 0.043607205
-0.0098947305 0.10275279 0.043731321
-0.0061858702 0.10295285 0.043771986
-0.0032708533 0.10285366 0.043915566
0.0025027767 0.10299566 0.043784797
0.022575071 0.1024874 0.043173239
0.02576709 0.10186972 0.041415773
0.0285188 0.100831 0.04052395
-0.064993396 0.1042435 0.040440299
-0.061994947 0.10496262 0.040616252
-0.057997573 0.10499938 0.041049764
-0.053995274 0.1049845 0.04075931
-0.049999535 0.10472133 0.040287431
-0.045861173 0.10556454 0.040744029
-0.042626314 0.10529042 0.040597629
-0.033258948 0.10462224 0.040399775
-0.029998288 0.10498975 0.040947139
-0.025995893 0.10572892 0.041402671
-0.021996116 0.10577658 0.042335626
-0.017996142 0.1057896 0.042529609
-0.013991401 0.10582267 0.043073829
-0.0099909296 0.1058485 0.043503195
-0.0062928461 0.1061516 0.043896176
-0.001645882 0.10677543 0.043681316
0.0019860158 0.10580025 0.042889193
0.0060071084 0.10574482 0.04225412
0.010015643 0.10642812 0.042374413
0.014001313 0.10643912 0.04280667
0.018398626 0.10603551 0.042319566
0.021493411 0.10547987 0.041352976
-0.085324705 0.11142424 0.041796386
-0.081809632 0.11053967 0.042038411
-0.077937335 0.10960871 0.041934621
-0.074182883 0.10980637 0.042273808
-0.070182368 0.11074559 0.042427771
-0.067748703 0.111258 0.040768899
-0.025012352 0.108513 0.040243901
-0.021787787 0.10913029 0.040706545
-0.017998749 0.1099515 0.040991079
-0.013986367 0.10998926 0.04196712
-0.0099839466 0.11002316 0.042648967
-0.0059896782 0.11002659 0.042945713
-0.0020025177 0.11003267 0.042827535
0.0019881555 0.11002026 0.042450994
0.0058031753 0.10986093 0.041443761
0.0093102241 0.10942086 0.040328957
0.014003617 0.1089365 0.040500615
0.016992051 0.108454 0.0403377
-0.089597657 0.11418051 0.041783772
-0.087136723 0.1124654 0.042557098
-0.065897189 0.11294511 0.042077377
-0.063374497 0.11553267 0.041760933
-0.01369218 0.113024 0.040418841
-0.0097892908 0.11388741 0.040853567
-0.0059920363 0.11417084 0.040956683
-0.0019926818 0.11418826 0.041416992
0.0019921367 0.11417683 0.041114617
0.0057420335 0.11358045 0.040586513
0.0082325302 0.112336 0.040154502
-0.092433386 0.1182948 0.0411231
-0.091245919 0.1168402 0.04236529
-0.061827641 0.11837409 0.041909501
-0.059341699 0.119814 0.040479701
-0.00099689153 0.1169515 0.040030047
-0.092700168 0.1213756 0.041467916
-0.091775835 0.121542 0.043455262
-0.061387088 0.12195467 0.042851787
-0.05875821 0.12205629 0.040843554
-0.092357099 0.12489149 0.040638678
-0.091309011 0.12587522 0.042383041
-0.061403282 0.12564559 0.042475611
-0.058772191 0.12519923 0.040763102
-0.090052046 0.12957123 0.041809801
-0.064764827 0.13079549 0.043250449
-0.062588744 0.12932773 0.041600056
-0.059558 0.128315 0.040220398
-0.088831976 0.13362339 0.041850246
-0.087855846 0.1344665 0.043372899
-0.065145485 0.133957 0.041801378
-0.063314699 0.132484 0.040088799
-0.088467866 0.13692133 0.040651768
-0.086946137 0.13813554 0.042405248
-0.065674201 0.13824306 0.041955195
-0.085203685 0.14162162 0.041605946
-0.082474865 0.14293866 0.042765349
-0.068551339 0.14349499 0.043713901
-0.066288799 0.1425385 0.041979764
-0.081527628 0.14512685 0.041250557
-0.078151591 0.14625807 0.042203199
-0.073868424 0.14645857 0.042888165
-0.070065103 0.14637116 0.042315755
-0.066957846 0.14587815 0.041156325
-0.076666296 0.148404 0.040313601
-0.074154176 0.14843124 0.040728651
-0.070478082 0.14843117 0.040587883
-0.060603101 0.0352186 0.0442288
-0.058053665 0.035328243 0.045260821
-0.054093588 0.035222381 0.045298986
-0.050180376 0.035294142 0.045168459
-0.046687052 0.035818502 0.044874627
-0.043885499 0.035739999 0.044000499
-0.0364388 0.035226401 0.044325799
-0.034096949 0.035131481 0.046104241
-0.030034602 0.034867011 0.045989711
-0.026190113 0.034830362 0.045982026
-0.02203187 0.034799922 0.046023093
-0.017978439 0.034767088 0.046041146
-0.013804555 0.034753639 0.046226665
-0.010008064 0.034699272 0.045918018
-0.0060154633 0.034835827 0.04604819
-0.0023135049 0.035101164 0.046023909
0.0019160383 0.035242613 0.045375749
0.005706538 0.035322752 0.044891339
0.0091260653 0.035603598 0.0447478
-0.060805023 0.037511088 0.044929076
-0.058305498 0.038269483 0.046387386
-0.053986233 0.03747246 0.046864767
-0.049708202 0.037541408 0.045981932
-0.045638811 0.037717491 0.044833992
-0.043052334 0.037022833 0.044061664
-0.036997285 0.037666019 0.045131166
-0.035392713 0.037931211 0.047138631
-0.0042338101 0.038224801 0.047939301
-0.0017135607 0.038737014 0.047241811
0.0021842069 0.038747471 0.04629264
0.0061830734 0.038133115 0.045632839
0.010211801 0.038050175 0.04498551
0.013692378 0.037949469 0.044395544
0.016103599 0.039337199 0.044017401
-0.060219049 0.041451998 0.044181749
-0.057937033 0.041770324 0.045516971
-0.053741641 0.041705299 0.046165757
-0.050123986 0.041943997 0.045017537
-0.046517733 0.040792599 0.044342447
-0.0367309 0.041591257 0.044790938
-0.034921218 0.042478252 0.046482492
-0.0043715001 0.042105466 0.047914267
-0.0018996233 0.042053446 0.047098469
0.0018657539 0.041986898 0.046172906
0.0060692374 0.041508999 0.045579389
0.0101412 0.041658197 0.045074362
0.014037768 0.041983757 0.044591531
0.016659381 0.042408381 0.04415714
-0.056993052 0.044029601 0.044655398
-0.053989224 0.044080079 0.044913627
-0.033297375 0.045569338 0.045499958
-0.030311244 0.047113039 0.046515532
-0.0124976 0.047200698 0.0479814
-0.0097033363 0.046884261 0.047763381
-0.0060085002 0.045371011 0.047433205
-0.0020035976 0.04495921 0.046771199
0.001668671 0.044717479 0.046468705
0.0062998421 0.044485297 0.046153061
0.010331239 0.045731191 0.045841198
0.013426014 0.046414215 0.044638537
-0.028799875 0.0490322 0.045162424
-0.026669772 0.049523346 0.046425801
-0.021761144 0.050408158 0.04584793
-0.017942455 0.050101988 0.047210243
-0.015158534 0.049067497 0.047828764
0.0114179 0.048970401 0.047894001
0.01428734 0.050041456 0.046615891
0.017071601 0.050491113 0.045262296
-0.021373788 0.054274853 0.045394313
-0.0196124 0.054134265 0.047444299
0.018291887 0.053162109 0.046928674
0.021502335 0.053960465 0.045466617
-0.021338044 0.058142014 0.045946028
0.02241263 0.057594843 0.046341427
0.0247816 0.058826022 0.044500303
-0.02167045 0.062248919 0.045954078
0.0223193 0.062001418 0.046881817
0.025365371 0.062011637 0.044734702
-0.024335951 0.067243204 0.0444282
-0.022647111 0.065903351 0.046301946
0.022308251 0.065888412 0.046542939
0.025233066 0.065612569 0.044616416
-0.024735084 0.070343502 0.045426816
-0.023534467 0.069011845 0.046866149
0.023070114 0.069526635 0.04707475
0.024958769 0.07009124 0.045184035
-0.025693387 0.073779561 0.046002589
0.025736313 0.074087612 0.046001155
0.028181501 0.074770004 0.04427965
-0.056485299 0.079142302 0.0441771
-0.054996453 0.079126798 0.044152848
-0.049499601 0.079120398 0.044079401
-0.028506076 0.078548424 0.04468615
-0.027179724 0.077618144 0.046453111
0.026670957 0.078190491 0.046516392
0.028995084 0.078186668 0.044608045
-0.064489603 0.083328903 0.044086099
-0.06299375 0.083334103 0.044151049
-0.056983549 0.081947304 0.044388697
-0.053994913 0.081992231 0.044902101
-0.050131973 0.082054295 0.044326656
-0.046997249 0.083335295 0.04431485
-0.0288432 0.082209021 0.045669302
-0.027917299 0.081488296 0.0475366
0.026680732 0.082231611 0.046560358
0.02878454 0.081937522 0.04449746
-0.065362841 0.086331047 0.044446021
-0.061995391 0.086175554 0.044708658
-0.057791762 0.086447313 0.044543117
-0.053991701 0.086214222 0.045234069
-0.049998909 0.086229958 0.045445781
-0.046489198 0.08616098 0.044623423
-0.028786832 0.086110048 0.045678027
-0.0278235 0.087016404 0.047278401
0.026171668 0.086254597 0.046745494
0.0282989 0.086217634 0.044536401
-0.065354288 0.089974821 0.044471771
-0.06199412 0.090436257 0.045226365
-0.05799735 0.090426356 0.045143921
-0.053999498 0.090405107 0.044855017
-0.049994987 0.090393484 0.044653248
-0.047170769 0.089431934 0.044445533
-0.036475599 0.091770202 0.044038199
-0.033777755 0.091194265 0.044376887
-0.029633891 0.090508126 0.044519812
-0.026952649 0.090849191 0.046523709
0.0184671 0.091365397 0.047918499
0.02324095 0.090894401 0.047820702
0.025849989 0.090245582 0.046302341
0.028152799 0.090232529 0.044352267
-0.061772656 0.093810424 0.044701602
-0.05819726 0.094350547 0.044803139
-0.054697942 0.093763202 0.044435639
-0.049995597 0.093902238 0.044379901
-0.047474898 0.094571702 0.044063501
-0.036481101 0.093182802 0.044199798
-0.034042675 0.094140053 0.044388846
-0.02999285 0.09392833 0.044647403
-0.025705814 0.093980424 0.045559075
-0.022685885 0.095460661 0.046349872
0.018769627 0.093622208 0.047651086
0.022179993 0.093733758 0.04733694
0.025831884 0.094239183 0.045415323
0.028089 0.092917398 0.044273701
-0.049494985 0.096717469 0.044225115
-0.032997601 0.096723497 0.044344224
-0.030162355 0.096965365 0.044583969
-0.025142487 0.097402565 0.044418972
-0.02206243 0.098160528 0.044778802
-0.018525623 0.098329894 0.04546902
-0.014586937 0.099067703 0.046364628
-0.0104152 0.099877298 0.0473736
0.0027710099 0.099815004 0.047591802
0.01467816 0.09848436 0.047730863
0.017985264 0.097610123 0.047172088
0.02196479 0.098027758 0.046072006
0.024727801 0.097661957 0.044706222
-0.024986751 0.1002395 0.044272449
-0.021997049 0.10071684 0.044315133
-0.019498101 0.10024 0.044034
-0.0142011 0.10037733 0.044412971
-0.0099692577 0.10080586 0.045593876
-0.005909211 0.1008532 0.045637142
-0.001527398 0.10132939 0.045383647
0.0017722945 0.10109536 0.045540236
0.0060557853 0.10166051 0.045785025
0.01002539 0.10176083 0.046989869
0.013982608 0.10178974 0.046936542
0.018071888 0.10186113 0.04579749
0.020980518 0.10130559 0.04490472
-0.0057769683 0.10568114 0.044032745
-0.0021805288 0.10499757 0.044103842
0.010026407 0.10442525 0.044632152
0.013997501 0.10444275 0.044848002
0.016972549 0.104399 0.044407599
-0.081863724 0.11149749 0.044525124
-0.077840015 0.11080988 0.045099039
-0.074000522 0.11127689 0.046288684
-0.070754051 0.11151201 0.045690622
-0.088624232 0.11524067 0.044738933
-0.085972272 0.114218 0.045869838
-0.082340747 0.11362647 0.046557322
-0.078346349 0.11303023 0.047064435
-0.074191801 0.112023 0.04763395
-0.068913847 0.11249524 0.0464219
-0.065922357 0.11449889 0.045634199
-0.08945892 0.11769465 0.045367569
-0.087118976 0.11717284 0.047225352
-0.064250745 0.1182055 0.047168098
-0.06331975 0.11891271 0.045460902
-0.089811563 0.12161013 0.045765303
-0.08754126 0.12167134 0.047767833
-0.064093098 0.122778 0.0478095
-0.063176975 0.12193643 0.046118055
-0.089357428 0.12543133 0.045427393
-0.087409973 0.12604125 0.047122799
-0.064583614 0.1261486 0.047081441
-0.06325455 0.12536299 0.0452707
-0.088482484 0.1294584 0.044750798
-0.087207168 0.13008779 0.046660721
-0.06597577 0.12968692 0.046116062
-0.086387888 0.13397291 0.046008509
-0.083875299 0.135332 0.047921199
-0.068679847 0.13406366 0.047278702
-0.067088835 0.13402823 0.045160875
-0.085138492 0.13745713 0.045224078
-0.08259736 0.13863277 0.046550877
-0.079441004 0.13998801 0.0475582
-0.069696292 0.13853148 0.046732113
-0.067574374 0.13794225 0.044933703
-0.081398293 0.1415755 0.044910699
-0.0783199 0.14193118 0.046288047
-0.073874079 0.14155373 0.046849716
-0.070296146 0.14184283 0.04559521
-0.067752898 0.141137 0.0442717
-0.077464931 0.14418133 0.044624198
-0.074000426 0.144206 0.044924147
-0.071032748 0.14417499 0.044447951
-0.032789826 0.035558723 0.04909867
-0.029785743 0.035056729 0.0498835
-0.025999844 0.03495441 0.050057236
-0.0217041 0.034885 0.050056834
-0.017893663 0.035099782 0.050122831
-0.014093643 0.035296403 0.049800228
-0.010118491 0.035344634 0.048697397
-0.0066632149 0.03572895 0.04852365
-0.03355496 0.037960798 0.049628299
-0.031169511 0.037691824 0.051492002
-0.0161693 0.038424149 0.051750347
-0.013854717 0.037956208 0.050998274
-0.0098428559 0.038137902 0.049705431
-0.0057921219 0.038030777 0.048547491
-0.00369262 0.0366899 0.048203401
-0.033213921 0.042028032 0.049292799
-0.030324761 0.042700168 0.05088374
-0.0274517 0.043311998 0.051911499
