ply
format ascii 1.0
comment PCL generated
element vertex 1298
property float x
property float y
property float z
element camera 0
property float view_px
property float view_py
property float view_pz
property float x_axisx
property float x_axisy
property float x_axisz
property float y_axisx
property float y_axisy
property float y_axisz
property float z_axisx
property float z_axisy
property float z_axisz
property float focal
property float scalex
property float scaley
property float centerx
property float centery
property int viewportx
property int viewporty
property float k1
property float k2
end_header
-0.0071438733 0.10160434 -0.023637565
-0.002928989 0.10066058 -0.02340843
0.0031325433 0.10046328 -0.022678429
0.0091227535 0.099739499 -0.022496026
0.01508665 0.099229582 -0.022806063
0.02094846 0.099196576 -0.021634182
0.026062828 0.098404981 -0.019394023
-0.061688859 0.1031508 -0.018252499
-0.057031117 0.10442096 -0.0186846
-0.051383156 0.10488019 -0.019811204
-0.045372918 0.10493209 -0.020503988
-0.039370023 0.10494687 -0.020459414
-0.033351395 0.10534739 -0.02095508
-0.027154028 0.10531937 -0.022429811
-0.021198096 0.10544718 -0.022702456
-0.01541608 0.10543016 -0.0225203
-0.0094521176 0.10541277 -0.022935646
-0.0030980036 0.10509729 -0.022543922
0.0027793183 0.10483294 -0.021500718
0.0090038478 0.10500364 -0.020481503
0.014822655 0.10471804 -0.019936537
0.020815659 0.10336887 -0.01932125
0.024960799 0.102221 -0.01823215
-0.05522367 0.108846 -0.018178133
-0.051378857 0.109153 -0.018679434
-0.044950727 0.10913315 -0.018720243
-0.039100233 0.10989348 -0.018986164
-0.033819821 0.10983732 -0.018838733
-0.026496852 0.10969811 -0.019629046
-0.020568777 0.11092438 -0.019822698
-0.015147815 0.11071518 -0.019705579
-0.0088217016 0.11113865 -0.020571975
-0.003246787 0.11114524 -0.020528106
0.0025285792 0.110534 -0.020197151
0.0088578658 0.11097676 -0.019377332
0.01340251 0.10973201 -0.018429328
-0.00109958 0.115152 -0.0180337
0.0027395485 0.11497051 -0.018852675
0.0068176249 0.1146705 -0.018550126
-0.073894672 0.14823505 -0.021083839
-0.068574764 0.14560387 -0.021241833
-0.064016521 0.14783943 -0.020796916
-0.074990846 0.15341461 -0.02139861
-0.062118925 0.15284598 -0.021169621
-0.078138389 0.1601 -0.022071043
-0.077204064 0.15902399 -0.020946525
-0.062592849 0.15929309 -0.020799587
-0.078098796 0.162499 -0.0239377
-0.075562112 0.16509056 -0.021190463
-0.06871409 0.16607364 -0.020984063
-0.064819545 0.16331962 -0.021387829
-0.020278785 0.16656199 -0.018558545
-0.014875945 0.1660787 -0.019702485
-0.010554753 0.16614749 -0.02046557
-0.072489098 0.168081 -0.022851801
-0.070797101 0.168292 -0.023709999
-0.025872253 0.17076224 -0.018886253
-0.020669013 0.17047799 -0.02058872
-0.014828223 0.17049681 -0.021655364
-0.0099499989 0.17014574 -0.021366814
-0.025417438 0.17649657 -0.019141955
-0.021083102 0.17657441 -0.021980092
-0.014490204 0.17665243 -0.020240126
-0.010827744 0.17513688 -0.022985876
-0.0242736 0.181474 -0.018005401
-0.020778636 0.18318771 -0.020913456
-0.01554128 0.18264779 -0.021151956
-0.01880382 0.18693581 -0.01930376
-0.016890947 0.18674938 -0.020632394
-0.054523498 0.034383349 -0.01201735
-0.050396681 0.034376409 -0.012858364
-0.045511626 0.034145057 -0.015153264
-0.039122168 0.034267455 -0.015698476
-0.0346676 0.0359024 -0.017193001
-0.0124791 0.035401501 -0.0179384
-0.0083367201 0.035203189 -0.017403336
-0.0028637794 0.035124723 -0.016634455
0.002991176 0.034770995 -0.016177623
0.0090239458 0.034489196 -0.01473657
0.015177543 0.034803122 -0.015288579
0.0181014 0.035495602 -0.0136744
-0.048712626 0.037038349 -0.012308825
-0.046754308 0.038963191 -0.014397875
-0.036727566 0.037167568 -0.0131953
-0.032858662 0.038015995 -0.015059362
-0.026878608 0.038542595 -0.015281177
-0.020783942 0.038492523 -0.015420234
-0.015095949 0.03813668 -0.015500561
-0.0089318659 0.03808685 -0.015026581
-0.0029820108 0.038114604 -0.014274384
0.003021613 0.037723053 -0.013493369
0.0070015634 0.036704499 -0.0127808
0.01749225 0.036840253 -0.017189801
0.019869624 0.039449185 -0.015016695
-0.043851797 0.044110246 -0.014594649
-0.040131986 0.047143675 -0.015329581
0.022140954 0.043809365 -0.015843065
0.026247421 0.046635937 -0.01488218
-0.037118301 0.048485152 -0.014195146
-0.031902224 0.051475149 -0.014973593
0.028978206 0.050559677 -0.015743878
0.030620158 0.052538574 -0.014033371
-0.044648379 0.059249062 -0.01219622
-0.0416678 0.059268098 -0.0121392
-0.031665228 0.057476778 -0.014778187
0.029464725 0.056294352 -0.017559599
0.032378573 0.057422075 -0.014734891
-0.048915874 0.063859478 -0.0124871
-0.045171101 0.062890887 -0.01332141
-0.039199445 0.063019149 -0.013330182
-0.033683743 0.062748931 -0.015007049
0.034012418 0.063048929 -0.015607127
0.036518052 0.064710349 -0.013017325
-0.062319629 0.070138462 -0.013623901
-0.056901082 0.069651671 -0.014469933
-0.050977979 0.06894093 -0.014108915
-0.045200083 0.068778127 -0.015871244
-0.039210375 0.068831705 -0.016047737
-0.034840498 0.068141446 -0.01670891
0.034352418 0.069095902 -0.016290337
0.037266124 0.069348708 -0.013290863
-0.072944097 0.077249862 -0.012603433
-0.068830065 0.075513132 -0.014463036
-0.063333862 0.074342228 -0.01646447
-0.057417989 0.073258884 -0.017074348
-0.05092999 0.07352566 -0.016632026
-0.046133202 0.073643185 -0.017243216
-0.039354887 0.073031582 -0.017679162
0.034405515 0.074625075 -0.015891895
0.036734581 0.07534834 -0.01299184
-0.074013606 0.081627384 -0.013957279
-0.069370158 0.081245758 -0.016768139
-0.065418459 0.078533702 -0.0176984
0.034870002 0.07988482 -0.016962811
0.037701685 0.080984153 -0.014218234
-0.075016342 0.087164737 -0.014372674
-0.069661051 0.08736074 -0.016946029
0.035093483 0.087022111 -0.017409921
0.037881546 0.086915016 -0.014614278
-0.075059399 0.092724696 -0.014045103
-0.069325663 0.093009807 -0.016416334
-0.065833636 0.093849838 -0.0178703
0.033661 0.093406811 -0.015725492
0.037129767 0.092068508 -0.012930076
-0.074402146 0.098191276 -0.01328913
-0.069347866 0.098739915 -0.015396859
-0.064458117 0.098737463 -0.017339587
0.028512668 0.09968029 -0.017072098
0.032727927 0.098783441 -0.014179963
-0.073200367 0.10266167 -0.012478734
-0.069210202 0.10426442 -0.013787214
-0.063849039 0.10505621 -0.0164186
-0.059139423 0.10653175 -0.01776305
0.017169526 0.10681925 -0.017643375
0.021565337 0.10612345 -0.016737519
0.027206806 0.1051559 -0.015310689
0.031696845 0.1038558 -0.013316974
-0.067571439 0.108994 -0.01256925
-0.063262753 0.11078005 -0.0142634
-0.057543181 0.11116194 -0.016614472
-0.051120684 0.11260851 -0.017122235
-0.044886705 0.11238389 -0.016904719
-0.039454501 0.11299089 -0.017126378
-0.032831039 0.11265329 -0.017430274
-0.027054181 0.11272919 -0.017086506
-0.02228705 0.113148 -0.0178078
-0.013261933 0.11319 -0.017888367
0.0110822 0.113195 -0.017988499
0.01548318 0.11176436 -0.016838696
0.021098768 0.11097614 -0.014740551
0.02601126 0.10971122 -0.013020555
-0.061401464 0.1151578 -0.01284478
-0.056830309 0.11629173 -0.013840673
-0.05115471 0.11712125 -0.014593548
-0.045046922 0.11732437 -0.014923987
-0.038929224 0.11704574 -0.014338814
-0.032886874 0.11612368 -0.014588558
-0.027149463 0.1164678 -0.014266226
-0.021191407 0.11646052 -0.014783571
-0.015076486 0.1170312 -0.015114984
-0.0092476038 0.11698314 -0.0156137
-0.0033155964 0.11741878 -0.015516677
0.0029114545 0.11799967 -0.016247803
0.0090549458 0.1172359 -0.016036201
0.014718687 0.11691109 -0.014442666
0.019725038 0.11576123 -0.013068462
-0.049296953 0.12071075 -0.012616625
-0.045004021 0.1208205 -0.012770258
-0.0410414 0.120798 -0.0124377
-0.0085710008 0.1206011 -0.01280625
-0.0026308848 0.12065612 -0.01258209
0.003219232 0.12088019 -0.01319926
0.0090958215 0.12093809 -0.013320259
0.01301515 0.12083 -0.01221385
-0.072470449 0.14391351 -0.0129655
-0.069211923 0.1435909 -0.013625058
-0.0654874 0.143443 -0.0120814
-0.074622251 0.14772724 -0.015391932
-0.068926215 0.14445144 -0.016412679
-0.063575715 0.1468325 -0.015060348
-0.076155677 0.15343396 -0.01540016
-0.062309649 0.15297614 -0.015081159
-0.077090435 0.15935037 -0.015208653
-0.066809371 0.16094199 -0.013170086
-0.063983724 0.15855634 -0.015163442
-0.037382744 0.16007642 -0.012547527
-0.032380965 0.15983415 -0.013220622
-0.026666675 0.16014864 -0.013444601
-0.020939032 0.16076533 -0.013543625
-0.015990399 0.16128449 -0.013509838
-0.074117258 0.16354391 -0.015398299
-0.069159396 0.16364025 -0.015380298
-0.065628402 0.162324 -0.017474599
-0.037794925 0.16439694 -0.013253882
-0.03262452 0.16447587 -0.015166637
-0.026606116 0.16446108 -0.016199358
-0.020709448 0.16418898 -0.016109634
-0.014540678 0.16425644 -0.014727401
-0.011209081 0.16516487 -0.016149944
-0.037438966 0.1694486 -0.01293307
-0.032951165 0.17074975 -0.015399163
-0.027604079 0.17020699 -0.016435156
-0.02057068 0.17072159 -0.013921308
-0.015291961 0.1700957 -0.016340693
-0.01127105 0.168393 -0.017346
-0.032031942 0.17574438 -0.014141674
-0.027720146 0.17756824 -0.015684413
-0.02090675 0.17653519 -0.015041047
-0.017425876 0.17496124 -0.017469674
-0.026183804 0.18207343 -0.014172693
-0.020900102 0.18318447 -0.015028642
-0.019817298 0.18639863 -0.016322464
-0.066954434 0.034934267 -0.0068123564
-0.062851653 0.034315746 -0.008155779
-0.056926876 0.033852726 -0.0089833736
-0.051104821 0.033533029 -0.0090675429
-0.045259349 0.033637639 -0.009185194
-0.040696982 0.034461338 -0.010279768
0.01013447 0.034961496 -0.0089868829
0.014682375 0.034553643 -0.009345931
0.018638661 0.03543115 -0.0090526622
-0.066822268 0.037418697 -0.0065553063
-0.062798142 0.039190594 -0.0075247828
-0.057126746 0.039205801 -0.0095655192
-0.051236521 0.039508466 -0.01128828
-0.047667202 0.040580299 -0.0117113
-0.037596676 0.037768371 -0.0085792793
-0.032936711 0.038469683 -0.0088553196
-0.027061401 0.038443454 -0.0087229516
-0.021142043 0.038598821 -0.0092237554
-0.014882731 0.038794216 -0.0086544156
-0.009115044 0.038946673 -0.0093076341
-0.0030226102 0.039113447 -0.0088656358
0.0031837735 0.03898003 -0.0091991173
0.0074683907 0.037475899 -0.0096430769
0.021058638 0.039302148 -0.0093038604
0.024159901 0.0418198 -0.0067811799
-0.060179003 0.0428246 -0.0065648849
-0.056243617 0.04402858 -0.0072407853
-0.051171076 0.045352716 -0.0088517051
-0.045595847 0.045753572 -0.010770437
0.023246899 0.043182936 -0.010718723
0.027348125 0.045250211 -0.008338267
0.032910887 0.046897255 -0.0062980517
0.036891099 0.047643103 -0.0061896751
-0.051122688 0.050944328 -0.0077283466
-0.045098931 0.051221285 -0.010341643
-0.039339468 0.051276218 -0.011025813
-0.034123775 0.05199967 -0.010570101
0.029203774 0.04811345 -0.010236988
0.032668654 0.050830647 -0.0083831241
0.038877189 0.051251996 -0.006594358
0.043465465 0.052295685 -0.0065394407
-0.054476351 0.058077801 -0.00642535
-0.051280841 0.056829251 -0.0088454084
-0.04526427 0.056461602 -0.01130823
-0.039039705 0.056943394 -0.011293222
-0.034414116 0.056635063 -0.010985386
0.034469377 0.055660006 -0.010286668
0.037725721 0.056728724 -0.0075624017
0.043863025 0.054779522 -0.0063523822
-0.062292799 0.065333262 -0.0073004318
-0.056687132 0.063641809 -0.0075821821
-0.051586144 0.062396325 -0.010384502
-0.038662899 0.060663398 -0.011982
0.038457435 0.062699839 -0.0094182389
-0.073032551 0.071390152 -0.0070428196
-0.068911143 0.070218988 -0.0085672187
-0.063855007 0.068308279 -0.010254918
-0.057258639 0.066777766 -0.010673928
-0.052674834 0.066233672 -0.011254534
0.040194355 0.069101334 -0.0091419369
-0.078534797 0.077185802 -0.0065570502
-0.075358532 0.075160727 -0.0084474478
-0.071274072 0.073875263 -0.011340734
0.039963897 0.075201333 -0.0092835389
-0.079301856 0.081302918 -0.007823037
-0.076547161 0.08034347 -0.010303064
0.04050881 0.080751687 -0.0094958078
0.042163249 0.082415551 -0.0067755198
-0.080104716 0.086972207 -0.0086186556
-0.077862836 0.087108165 -0.011582035
0.040790621 0.08689826 -0.01039285
0.042355001 0.086633697 -0.0072958162
-0.080344833 0.092952885 -0.009081413
0.039570086 0.093321241 -0.0091754794
0.042180333 0.090609096 -0.0071401098
-0.079856344 0.098804578 -0.008128494
-0.076995768 0.099294901 -0.010861189
0.035644248 0.098980308 -0.0116084
0.037852343 0.099290803 -0.0087340102
-0.078916557 0.10448956 -0.0071558482
-0.07553947 0.10520773 -0.0096229808
-0.071105197 0.10737519 -0.01145084
0.033772882 0.10581601 -0.010061033
0.036835872 0.10349372 -0.0078831976
-0.074673317 0.11080247 -0.0076731718
-0.069720529 0.11176924 -0.010254846
-0.0654184 0.1138025 -0.011676401
0.027738629 0.11195278 -0.010399592
0.031959724 0.11046243 -0.0080924444
-0.074759543 0.11757372 -0.007117847
-0.069386065 0.11724887 -0.0085845096
-0.063252136 0.11758149 -0.010183006
-0.057644486 0.11925957 -0.011103286
-0.033101756 0.11923742 -0.011114358
-0.026990088 0.11928881 -0.011119663
-0.020698264 0.11942913 -0.011414913
-0.017149601 0.119849 -0.01089395
0.016883167 0.11943134 -0.011387032
0.021452801 0.11792836 -0.0098824305
0.026150497 0.11579731 -0.0079692388
-0.078878947 0.12295025 -0.0061455774
-0.07539136 0.12302796 -0.0076304786
-0.069408722 0.12309921 -0.0087911999
-0.063300222 0.123005 -0.0088297613
-0.057089783 0.1230983 -0.008394721
-0.051207196 0.12350994 -0.0091397082
-0.045022648 0.12400655 -0.009715193
-0.038843721 0.12335177 -0.0091512538
-0.033472847 0.12175628 -0.0081695812
-0.027003756 0.12124307 -0.0082453797
-0.02095945 0.12184105 -0.0083609493
-0.014892036 0.12220303 -0.008564976
-0.008905693 0.12370604 -0.0095067434
-0.0026631388 0.12381954 -0.009584235
0.0030336112 0.12400395 -0.0095518325
0.0088040391 0.12385162 -0.0094530843
0.014944383 0.1224127 -0.0087779388
0.020074943 0.1210539 -0.0071312007
-0.078927696 0.12735599 -0.0061772252
-0.075439237 0.12889217 -0.0077018272
-0.069441877 0.12895618 -0.0088753896
-0.063093677 0.12903 -0.0082833841
-0.057718106 0.12845019 -0.0067412476
-0.045284003 0.1262078 -0.0070082285
-0.0074229799 0.126476 -0.0066123353
-0.0034238631 0.12652375 -0.0067095715
0.0028180298 0.12655321 -0.0063033579
0.0075911428 0.12651825 -0.0063395477
-0.07473579 0.13457488 -0.0070203128
-0.069464162 0.13478921 -0.0081782835
-0.063012108 0.1347824 -0.007553251
-0.058629815 0.13403615 -0.0063445247
-0.073902085 0.14091177 -0.0074393549
-0.0690253 0.14071278 -0.0087101012
-0.063278459 0.14077042 -0.0076285573
-0.075461313 0.14686491 -0.0094364453
-0.06265416 0.1466656 -0.0088829305
-0.076541655 0.15300955 -0.0091565587
-0.063310556 0.15293093 -0.0091601629
-0.048075698 0.15465 -0.00633475
-0.044418294 0.15361753 -0.0071231774
-0.038951848 0.15348396 -0.0079319421
-0.033079952 0.15443833 -0.0079524824
-0.028072512 0.15556814 -0.0075281612
-0.075326897 0.15861532 -0.0092540551
-0.068627983 0.15959929 -0.0087000746
-0.065187305 0.15730341 -0.010081139
-0.048535198 0.15803914 -0.006641719
-0.044741523 0.15853876 -0.008794711
-0.03895396 0.15774117 -0.010780379
-0.032941457 0.15695615 -0.010955371
-0.026404258 0.15739846 -0.010032648
-0.02081343 0.15847057 -0.00882769
-0.016344259 0.16051641 -0.0098457951
-0.072698504 0.16219249 -0.01139295
-0.070900202 0.1623095 -0.011466401
-0.044584263 0.16453078 -0.0087929638
-0.040825825 0.16483925 -0.011484537
-0.0305354 0.1668015 -0.0065769004
-0.026708329 0.1655204 -0.0077170203
-0.021051474 0.16466391 -0.0091569899
-0.015579441 0.16343321 -0.010370775
-0.043235533 0.16949232 -0.0080212979
-0.039700128 0.1712185 -0.010255693
-0.030688135 0.16974717 -0.006786658
-0.027291359 0.1705686 -0.0095387623
-0.023309933 0.16878468 -0.011654199
-0.03781902 0.1747226 -0.0085172104
-0.033210818 0.17772152 -0.0091609536
-0.0268442 0.17640635 -0.0088269534
-0.023799401 0.178657 -0.0117033
-0.026541628 0.18120001 -0.0093308492
-0.02326189 0.18232298 -0.011050778
-0.068851374 0.034075174 -0.0030007402
-0.062862866 0.033425171 -0.0027410029
-0.056785483 0.033417404 -0.0029884644
-0.051114351 0.033509769 -0.0030754488
-0.044937454 0.033676159 -0.0029397705
-0.041321345 0.03401462 -0.0027700677
0.004946575 0.035197675 -0.0011964042
0.0092267729 0.034426961 -0.0029268584
0.014945865 0.034420297 -0.0029896935
0.019855715 0.035220254 -0.0032100785
-0.068546675 0.039294872 -0.0026593893
-0.065263972 0.041447926 -0.0052273278
-0.036796201 0.038371399 -0.00507539
-0.032684922 0.038343936 -0.0026921374
-0.027149761 0.038330991 -0.0030901299
-0.021060312 0.03841722 -0.0031409983
-0.014973416 0.038566895 -0.0025874989
-0.0091917943 0.038783409 -0.0032761584
-0.0029409246 0.038962308 -0.002981195
0.0025598416 0.038395241 -0.0033558414
0.0070796302 0.036561199 -0.0057551502
0.022147678 0.037676796 -0.0038738314
0.026744887 0.039832044 -0.0037524283
0.032752026 0.039845992 -0.0020203844
0.03734589 0.040543132 -0.0012980162
-0.067221798 0.042826369 -0.00061362499
-0.062945619 0.04409327 -0.0029372126
-0.057853892 0.046633378 -0.0034853097
0.027919002 0.043140024 -0.0056842999
0.032946102 0.044033471 -0.0051731816
0.039194215 0.044814065 -0.0039877342
0.04479805 0.046299804 -0.0025947653
0.048861898 0.047435999 -0.00062094798
-0.055891588 0.051148038 -0.0027780894
0.045767944 0.050415706 -0.0050874427
0.050301779 0.051380932 -0.0026186216
-0.055977855 0.057044603 -0.002728973
0.039845392 0.057893749 -0.0051872944
0.044922207 0.057552017 -0.0053154142
0.051127147 0.057113793 -0.0038797702
0.054631211 0.057757236 -0.001299504
-0.06783025 0.064371184 -0.0022147256
-0.063405983 0.062478505 -0.0030262908
-0.057881847 0.060931139 -0.0033542914
0.040735241 0.062704414 -0.0045755203
0.045045614 0.063052967 -0.0023463343
0.050848756 0.062775001 -0.0025219559
0.054764014 0.061868589 -0.00079243426
-0.074679025 0.070260867 -0.0023618594
-0.069915533 0.067808799 -0.0041635754
0.041527536 0.067157455 -0.005105787
0.043115936 0.069224983 -0.002698215
0.050630599 0.066238716 -0.00035084141
-0.079893842 0.075506411 -0.0027011156
-0.077251576 0.07338547 -0.0052486695
0.043471064 0.075360939 -0.003190343
-0.084366903 0.083106451 -0.00099999947
-0.081982464 0.080665737 -0.0032165991
0.043559585 0.081118084 -0.0032905282
-0.085073352 0.087454036 -0.0020900182
-0.083169237 0.08648251 -0.004961493
0.043858409 0.086752295 -0.0033024915
-0.085157514 0.093158588 -0.0024577698
-0.08349628 0.093564257 -0.005355814
0.041447345 0.094794035 -0.0051328987
0.043102358 0.092562728 -0.0028449977
-0.084712744 0.098585837 -0.0018667635
-0.08288037 0.099463224 -0.0047471314
0.040649202 0.099577546 -0.0036250132
0.042328835 0.097698472 -0.0011502953
-0.084332265 0.10252867 -0.00095252629
-0.081979603 0.10528625 -0.003194432
0.03562545 0.1071865 -0.0058944998
0.038320124 0.10451346 -0.0030901723
-0.080159858 0.11089952 -0.0024337233
-0.076785892 0.11251099 -0.0049180328
0.03430289 0.11139873 -0.0031229386
0.03657712 0.1085076 -0.0020275502
-0.085483737 0.118304 -0.001177677
-0.081336245 0.11696547 -0.003366868
-0.077196233 0.11586667 -0.0054571717
0.027594175 0.11804758 -0.0037158779
0.031473909 0.11545735 -0.0022819107
-0.086227745 0.12312657 -0.0020870531
-0.08189632 0.12287855 -0.0046063019
-0.037389152 0.12577325 -0.0046908003
-0.032975599 0.12431493 -0.0033409165
-0.027007757 0.12341502 -0.0033548765
-0.02106474 0.12444939 -0.0030784053
-0.015705401 0.12506816 -0.0040851966
0.0114834 0.125837 -0.0056256903
0.015888793 0.1248614 -0.004306172
0.021224951 0.12293827 -0.0028213048
0.025494089 0.12065622 -0.001875909
-0.085673772 0.12849672 -0.0019001508
-0.081563041 0.12879947 -0.0047257883
-0.05495267 0.12986422 -0.0054781837
-0.05074244 0.12883368 -0.0037920452
-0.044963706 0.12768824 -0.0030245862
-0.039393868 0.12691242 -0.002609683
-0.035119399 0.12632549 -0.00040466801
-0.014248643 0.12661955 -0.0018585032
-0.0091171181 0.12763567 -0.0028454696
-0.0031107806 0.12825003 -0.0032409697
0.0028675282 0.12837508 -0.0031277258
0.0091061201 0.12789984 -0.0031295267
0.014281426 0.12698834 -0.001797071
0.0180905 0.12620001 -1.26099e-05
-0.084596202 0.1325175 -0.0012185965
-0.081398472 0.13501251 -0.0029195789
-0.077637956 0.13517466 -0.0055547152
-0.056283657 0.13530475 -0.0046889237
-0.052067734 0.13461825 -0.0019472777
-0.080251776 0.1406101 -0.0028118547
-0.076951236 0.14075689 -0.0055260565
-0.060934067 0.14191401 -0.0050737672
-0.05692149 0.14087117 -0.0032941166
-0.053241357 0.14035766 -0.00074109435
-0.079437867 0.14643285 -0.0019867932
-0.077048652 0.1467471 -0.0049585891
-0.061435834 0.14720912 -0.0037634596
-0.05689168 0.1467251 -0.0017355654
-0.050787035 0.14691903 -0.0019136829
-0.045000836 0.14789505 -0.0025869389
-0.040225364 0.14908588 -0.0018235426
-0.078386381 0.15062299 -0.0016802624
-0.076740175 0.15335901 -0.0034217155
-0.066985629 0.15530519 -0.0024516808
-0.063870087 0.15248109 -0.0027816473
-0.056351982 0.15245879 -0.0014854677
-0.050682995 0.15230408 -0.0042097275
-0.045308832 0.15093933 -0.005275947
-0.038278531 0.1507255 -0.003955517
-0.032765571 0.15312414 -0.002705602
-0.028246196 0.15503645 -0.0039201709
-0.074008986 0.15724477 -0.0038717021
-0.069696769 0.15738295 -0.0032397422
-0.054847255 0.15765065 -0.0014565684
-0.051699866 0.15907553 -0.0039248778
-0.032764297 0.16101034 -0.00098947715
-0.026297363 0.15857731 -0.0016277906
-0.021904569 0.15932734 -0.004242931
-0.049934264 0.16448155 -0.0032117418
-0.047252033 0.16647433 -0.0055636666
-0.0368746 0.16419837 -0.00081419037
-0.033269886 0.16458483 -0.0035080086
-0.027199138 0.16281188 -0.0048255352
-0.0233093 0.162498 -0.00577898
-0.044864368 0.16990282 -0.0030728262
-0.039658561 0.17272578 -0.0025272453
-0.033318076 0.17052281 -0.0029432673
-0.037522834 0.17468517 -0.0041439966
-0.032679439 0.17596436 -0.0039127828
-0.029321844 0.17702 -0.0053549483
-0.07247705 0.035324249 0.0026637199
-0.069115967 0.033813212 0.0030587877
-0.062977731 0.033479173 0.0031139769
-0.057290692 0.033508383 0.0028918223
-0.050925061 0.033531308 0.0031960898
-0.044975992 0.03357064 0.0030773277
-0.039530501 0.033655103 0.0030854023
-0.035232302 0.0337248 0.0049142502
0.0032641741 0.034613788 0.0035843486
0.0090013761 0.034406815 0.0026933346
0.015318157 0.034743771 0.0023488272
0.020470601 0.034737058 0.0031766556
0.026512116 0.035133507 0.0039637429
0.0309311 0.035586402 0.0055308002
-0.072416872 0.036770001 0.0034361768
-0.070903607 0.039582327 0.0023148302
-0.031025132 0.038167067 0.0023535232
-0.027142167 0.038240004 0.0027730926
-0.020925244 0.038308747 0.00303313
-0.015070575 0.038415063 0.0030492707
-0.0090637896 0.038593289 0.0029487524
-0.0028984572 0.038485616 0.0031010034
0.00093645393 0.03725905 0.0016987234
0.0086558256 0.03617885 0.0051649353
0.01579955 0.036180452 0.0038127052
0.027822321 0.036574077 0.00065569539
0.033106592 0.037161265 0.0029209487
0.039058805 0.039245121 0.0028938821
0.043192729 0.041091826 0.003772255
-0.06823837 0.043543641 0.0031827542
-0.063421212 0.046111986 0.0026602123
0.041730799 0.0422749 0.00024864299
0.04583855 0.043480754 0.0023465971
0.050477929 0.04638388 0.0030659812
-0.057678103 0.050807793 0.0031548166
0.05297897 0.049931914 0.001257189
0.055467531 0.051975179 0.0033227375
-0.061222237 0.059713464 0.0039586551
-0.05766286 0.057217386 0.00296644
0.05706257 0.05714928 0.0026846314
-0.072703533 0.065341584 0.0035949314
-0.06910602 0.063190266 0.00281303
-0.063940652 0.060881875 0.0025460199
0.053578898 0.065804102 0.000119664
0.057407476 0.063056953 0.0024988018
-0.079375029 0.071718521 0.0045519532
-0.075695254 0.068675429 0.0030232898
0.045844737 0.069343552 0.0019737778
0.05116877 0.069491856 0.0028854834
0.056540493 0.068387687 0.0037540656
-0.0841536 0.0776916 0.00500686
-0.081746228 0.075173676 0.0028956833
0.045548405 0.07509312 0.002729167
-0.084921584 0.081551231 0.0038114025
-0.083417766 0.080167674 0.0013815854
0.045474336 0.081270799 0.002697468
-0.087068625 0.086916842 0.0028248159
0.045259878 0.086865507 0.0026873313
-0.086932525 0.092916146 0.0030791913
0.044628404 0.093148515 0.00268284
-0.086747549 0.098813005 0.0029196721
0.0417802 0.10142151 0.0006862625
0.042926297 0.099192269 0.0028597384
-0.085417524 0.10460667 0.0031308795
-0.083592735 0.107021 0.00072878035
0.040270235 0.10513105 0.0026590878
-0.08534348 0.1111645 0.0040252884
-0.083103225 0.11058651 0.0011044684
0.035231799 0.11300489 0.0028231842
0.037393764 0.10990572 0.0030366813
-0.090317249 0.11894976 0.0050546648
-0.087736852 0.11688752 0.0024329561
0.029109115 0.11926728 0.0018927878
0.032387391 0.11665713 0.003199209
-0.090295821 0.12334874 0.0052871099
-0.088857822 0.12330662 0.0022923939
-0.031512931 0.12546737 0.0025242458
-0.027100848 0.12506405 0.0026759394
-0.022336883 0.12568133 0.0015441593
0.021947611 0.12477785 0.0024572639
0.026325092 0.12181711 0.0032596677
-0.090313099 0.12676699 0.00528424
-0.088487513 0.12887606 0.0026615185
-0.048548199 0.13121849 0.000443842
-0.045052793 0.12957557 0.0028848813
-0.038921461 0.12797783 0.0028505723
-0.034216806 0.1267608 0.0036586886
-0.020452579 0.12665914 0.003676391
-0.015191981 0.12782358 0.0028394358
-0.0090694344 0.1293589 0.0031124905
-0.0029277422 0.13021959 0.0025373071
0.0031125643 0.13066386 0.002701232
0.0090350164 0.13019238 0.0028420095
0.015045928 0.12839444 0.0027242985
0.019289337 0.12658873 0.0034350271
-0.087127477 0.1349515 0.0027575265
-0.049333572 0.13500951 0.0026900377
-0.047530424 0.13241275 0.0040620673
-0.085388124 0.14065377 0.0037721593
-0.082734577 0.1417913 0.0012014045
-0.050555177 0.14089705 0.0027335647
-0.084450774 0.14668524 0.0051487149
-0.082570985 0.14664486 0.0021707292
-0.048977595 0.14436688 0.0024259575
-0.044791661 0.14658953 0.0030773713
-0.040274721 0.14942421 0.0023645344
-0.084513202 0.15010899 0.0051703001
-0.080717422 0.15184629 0.0029734247
-0.07515882 0.15489264 0.0031013507
-0.068758406 0.15531817 0.0031796873
-0.062940806 0.1542922 0.002927135
-0.058458101 0.15499334 0.00070178398
-0.0421778 0.15066899 0.0055066198
-0.038805049 0.15270247 0.00361114
-0.034402091 0.1540828 0.0011484168
-0.072699502 0.156342 0.00032204
-0.070578098 0.15614501 0.0010497135
-0.056558095 0.15925395 0.002986674
-0.053148199 0.16124099 0.00587596
-0.042978972 0.1590575 0.005107509
-0.03904245 0.15902457 0.0031661591
-0.032947429 0.15799209 0.0022358096
-0.028786639 0.15900061 0.00071148376
-0.050708372 0.16406846 0.0027030206
-0.04501671 0.16512834 0.0044023576
-0.039574455 0.16459036 0.0025214278
-0.04432692 0.16871899 0.0014264266
-0.038858119 0.16956584 0.0014474625
-0.0354998 0.17123 0.000174393
-0.072364405 0.035251975 0.0071964823
-0.069165066 0.034376122 0.0090965098
-0.063014738 0.033681486 0.0089574298
-0.056789689 0.033529527 0.0091832653
-0.051100887 0.034064457 0.0084944824
-0.045003403 0.03470454 0.007355026
-0.038888093 0.034375042 0.0087820059
-0.034010831 0.033784959 0.009279171
-0.00056439388 0.035454366 0.0094671836
0.0026482968 0.034286615 0.0090467297
0.0062194099 0.035134099 0.0065492801
0.02207063 0.035083257 0.0083371541
0.027019115 0.034684315 0.0092970859
0.032012969 0.035329331 0.010091869
-0.072393663 0.037185635 0.0075039528
-0.069809578 0.0390925 0.0094723487
-0.038789548 0.036184952 0.01100505
-0.026172092 0.038043845 0.0086456137
-0.020789951 0.038193483 0.0091423197
-0.015269408 0.038327046 0.0089077046
-0.0088696536 0.038458295 0.0092489189
-0.0033426003 0.037840724 0.0088683404
0.0205322 0.036200549 0.0084711602
0.034671552 0.036278401 0.0089241397
0.039171495 0.038238995 0.0085880868
0.044471391 0.040838547 0.0092864037
-0.067773037 0.043234736 0.0082177101
-0.063202776 0.04510159 0.0095168147
-0.057996858 0.046977635 0.010079991
0.047467098 0.042590998 0.0090933098
0.050962538 0.045211833 0.00862219
0.054407835 0.047876198 0.010205487
-0.056114651 0.050594795 0.0087450957
-0.0535549 0.051746249 0.011515174
0.057063516 0.051597267 0.0086887544
-0.062527388 0.059158567 0.0094053792
-0.056921765 0.056784309 0.0090013249
-0.053620465 0.055012058 0.01141894
0.059125789 0.0568083 0.0082256608
0.060333174 0.059068318 0.0099952333
-0.073262036 0.064710602 0.0089932764
-0.068950504 0.061570235 0.0090758521
-0.064886555 0.0601677 0.0076620998
0.059649777 0.063361958 0.0063388557
0.060553223 0.06290447 0.0092519429
-0.079265147 0.070479639 0.0093040233
-0.075982764 0.067536063 0.0087953275
0.050321966 0.071744435 0.00604604
0.058210727 0.069694981 0.0083006984
0.06023144 0.06701456 0.010340376
-0.084505655 0.077774636 0.0090164766
-0.082087867 0.074261017 0.0091399355
0.046688642 0.075468332 0.0085438201
0.05099649 0.072870083 0.0093037449
0.055519931 0.07253091 0.0097350636
-0.086048096 0.081240863 0.0089996876
0.046273608 0.081344299 0.0086807813
-0.088129528 0.086771518 0.008974323
0.045882374 0.086917497 0.0086732628
-0.088827513 0.092863351 0.0089441696
0.045202095 0.09319748 0.0086653996
-0.088746071 0.098946601 0.008912853
0.043471258 0.099426903 0.0086643286
-0.087065421 0.10496512 0.0088808052
0.040682249 0.10575381 0.0085796295
0.042073384 0.10286817 0.0086651566
-0.090510845 0.11326399 0.01083605
-0.08724349 0.11091769 0.0086609088
0.035591483 0.11336616 0.0092709726
0.037789341 0.11033425 0.0091375532
-0.091626547 0.11686511 0.008814686
-0.0897559 0.114544 0.00631807
0.029590201 0.119982 0.0063503999
0.032610226 0.1171253 0.0089464905
-0.092249371 0.12281924 0.0088654635
-0.030439168 0.12589133 0.0086643295
-0.027785588 0.12574942 0.0087805009
0.022813993 0.12534608 0.0086244438
0.026969709 0.12239901 0.0091137048
-0.091662936 0.12886554 0.008754761
-0.044238966 0.13023537 0.0089816125
-0.039001737 0.12840012 0.0088047218
-0.033291597 0.12688322 0.009148119
-0.024890641 0.12627099 0.010112022
-0.0209023 0.12727435 0.0090847583
-0.014875785 0.12882069 0.008965807
-0.0089458944 0.13013947 0.0091177514
-0.0029765957 0.13104583 0.0088472897
0.0031847705 0.13153508 0.0089989174
0.0090857269 0.13107179 0.0089829881
0.015043693 0.12927178 0.0090788901
0.019966882 0.12697303 0.0091504771
-0.090670206 0.13326907 0.0090110544
-0.088861153 0.13656825 0.008458701
-0.048499927 0.136575 0.0084030051
-0.047076728 0.13378128 0.0093725733
-0.087117948 0.14120553 0.0086869048
-0.049283314 0.14091359 0.008902899
-0.087409675 0.14672062 0.008700707
-0.049211469 0.14653338 0.010038676
-0.046380807 0.14803751 0.0078185173
-0.086066887 0.15131153 0.0090517122
-0.081024267 0.15401566 0.0092275022
-0.075185217 0.155479 0.0090741655
-0.068844438 0.15568975 0.0086081112
-0.063084118 0.15564042 0.0093178842
-0.058167566 0.15588701 0.011329467
-0.050123949 0.15332687 0.011024888
-0.04521963 0.15287033 0.0081786932
-0.04127853 0.15461066 0.006301003
-0.0728404 0.156111 0.0119063
-0.070210166 0.15605901 0.011389666
-0.056604706 0.15738642 0.0086133825
-0.050803784 0.15884691 0.0085886009
-0.045874991 0.1584255 0.0073929927
-0.0412196 0.15653801 0.0060795499
-0.048492901 0.16224501 0.0064518498
-0.046502035 0.162266 0.0063828067
-0.067485012 0.035117459 0.013496584
-0.06313806 0.034264281 0.015285736
-0.057013363 0.033623453 0.015129393
-0.05329195 0.033427924 0.014106399
-0.036397249 0.035581753 0.01293725
-0.03360343 0.034186047 0.014801743
-0.029332351 0.03484185 0.01685155
-0.00051302137 0.035470776 0.014731919
0.0028205842 0.034351084 0.015060565
0.0069913948 0.03436435 0.0165275
0.023201313 0.035377014 0.015263473
0.026795359 0.034846902 0.014841963
0.031712744 0.03553177 0.014504172
-0.067040414 0.038356841 0.013604564
-0.063514657 0.039441388 0.015942603
-0.059354901 0.041053399 0.017955201
-0.036901999 0.036214299 0.0131672
-0.025490055 0.037884623 0.015347942
-0.021081978 0.038107596 0.014992199
-0.014839794 0.038257055 0.015053619
-0.0089718169 0.038369451 0.01522006
-0.003232917 0.037708309 0.015064395
0.0217495 0.036275201 0.01506725
0.034303818 0.036635082 0.015881328
0.038943909 0.038353913 0.015121289
0.044473082 0.040916733 0.014816891
-0.062177896 0.04289382 0.01365211
-0.057057645 0.044629995 0.014760938
-0.052483346 0.04654704 0.0160408
0.0472585 0.042452451 0.015892126
0.050796114 0.044744316 0.014763044
0.05452022 0.04782198 0.014699084
-0.051200401 0.050732028 0.014852599
0.057457209 0.051616922 0.014685128
-0.062911324 0.059126224 0.014806118
-0.058374975 0.057895362 0.01498648
-0.051512085 0.055065248 0.014677438
0.05945424 0.056146465 0.014866485
0.060373388 0.058907531 0.0144422
-0.073118061 0.064774282 0.015015647
-0.069162585 0.061663717 0.015011839
-0.0654549 0.060118549 0.0165754
0.060779389 0.06303665 0.014664541
-0.079301171 0.07028199 0.014992781
-0.076024309 0.067708328 0.015151276
0.058879063 0.070349924 0.015035555
0.060512662 0.067112967 0.014432037
-0.084508613 0.077766359 0.0152493
-0.082042068 0.074645281 0.015084647
0.046780147 0.075489946 0.01451546
0.050984908 0.073421292 0.015049675
0.055519801 0.072925717 0.014889687
-0.086340852 0.081296451 0.014994721
0.046111032 0.08111649 0.014810181
-0.088103719 0.086797871 0.014966174
0.045585442 0.086899318 0.014666371
-0.089542709 0.092932768 0.014935436
0.044842217 0.093180388 0.014660397
-0.089393318 0.099009454 0.014902595
0.0419266 0.101462 0.0171593
0.043170255 0.099327557 0.014552005
-0.087692402 0.1050257 0.014868504
0.040762678 0.10493565 0.014663129
-0.091088042 0.11320041 0.015500429
-0.087991737 0.11057401 0.014953378
0.035578381 0.11332384 0.015233818
0.037787523 0.1101947 0.014983601
-0.093007736 0.11671165 0.014812549
0.029969651 0.1198125 0.01647885
0.032705065 0.11696596 0.014928035
-0.093906209 0.12278833 0.014776407
-0.030704601 0.12573199 0.015682634
-0.027365763 0.12557301 0.015285421
0.022954253 0.12541728 0.014890083
0.026990127 0.12244521 0.015013485
-0.093118973 0.12891817 0.014744447
-0.044032041 0.12965338 0.015043663
-0.039044026 0.12770016 0.014854767
-0.033544309 0.12671649 0.014810629
-0.0249366 0.126289 0.012878601
-0.021103946 0.12716487 0.0149875
-0.014991066 0.12892906 0.01510901
-0.009005581 0.13026267 0.014936295
-0.0029270456 0.13112624 0.015060459
0.0031980637 0.13160492 0.01509403
0.009097876 0.1311475 0.014945795
0.015011633 0.12927432 0.015095926
0.019980269 0.1270614 0.015033415
-0.091042437 0.13476211 0.015020866
-0.089571074 0.13712275 0.012714325
-0.04833759 0.1367168 0.01521371
-0.04692829 0.1340881 0.014970179
-0.091055214 0.14146242 0.015894108
-0.089286551 0.14097789 0.013004179
-0.049908075 0.14089997 0.014892525
-0.090929434 0.14699683 0.014961548
-0.089772008 0.14515033 0.0124809
-0.051333025 0.14702304 0.014972708
-0.090554819 0.1501846 0.015139
-0.087357581 0.15237047 0.014896342
-0.080867976 0.15491971 0.015027311
-0.076747924 0.15583113 0.015092113
-0.061443519 0.15593083 0.014877317
-0.056784015 0.15517159 0.014845542
-0.052475516 0.15221678 0.01468613
-0.073869936 0.15617684 0.015353907
-0.06903784 0.15622021 0.014966434
-0.064396106 0.15612708 0.01551585
-0.062288836 0.034832396 0.020556122
-0.056980014 0.033811387 0.021119589
-0.053154737 0.033552963 0.021498922
-0.036249999 0.035144176 0.0219115
-0.033079248 0.034217764 0.020576343
-0.0296224 0.035225101 0.019145999
0.0037112455 0.034962561 0.020460565
0.0085957469 0.03461412 0.02116272
0.015091967 0.034593884 0.022505326
0.021291934 0.034950636 0.021325994
0.026430329 0.03532692 0.019748237
0.030334299 0.035849299 0.0181065
-0.061110009 0.039152306 0.020921027
-0.059024416 0.040160198 0.0202334
-0.030151799 0.036080901 0.023674101
-0.026518283 0.03781607 0.021062912
-0.021077488 0.038130667 0.02112155
-0.014928807 0.038278446 0.020914163
-0.0092385244 0.038406204 0.021088164
-0.0026546435 0.038313471 0.020860666
0.0015727726 0.037118729 0.022140458
0.0189601 0.036125999 0.0191857
0.028266739 0.036634937 0.022441937
0.033115894 0.03761521 0.021416739
0.039080013 0.039671104 0.021098563
0.043162249 0.041241843 0.020019399
-0.056317765 0.043339796 0.021476999
-0.052488517 0.046341404 0.020920344
0.045610014 0.042965133 0.021609508
0.050643064 0.045878004 0.0208483
0.054138102 0.0477755 0.0182012
-0.051285159 0.05096582 0.021133082
0.05264876 0.048665781 0.022803161
0.056266177 0.05169249 0.020769365
-0.061189335 0.059623916 0.019383067
-0.057106026 0.058939241 0.020913862
-0.051912259 0.055710301 0.021148203
0.058569729 0.057283361 0.021014443
0.0600207 0.059516501 0.0181686
-0.072698958 0.06530901 0.019742159
-0.069093011 0.063258119 0.021044072
-0.063612796 0.061079144 0.021433054
-0.059207223 0.060580127 0.023351699
0.058967568 0.062720813 0.021765452
0.060184151 0.063449018 0.018512534
-0.078776769 0.071201026 0.020094575
-0.075382069 0.068536855 0.021203183
-0.071822204 0.066615403 0.0237319
0.046354279 0.07075128 0.021885764
0.051086675 0.071057841 0.022514906
0.057643205 0.068790331 0.02095429
0.060173102 0.066455796 0.0181654
-0.08126501 0.075207323 0.020910248
0.045560218 0.074845649 0.021153629
0.051487491 0.072610155 0.019539537
0.055129476 0.072422549 0.019090176
-0.085213907 0.081216194 0.020329926
-0.083603747 0.079473317 0.022495419
0.045546498 0.081146061 0.020806495
-0.087482542 0.086899266 0.021172892
0.045060169 0.086865492 0.020665314
-0.088993624 0.092941388 0.021133075
0.044162814 0.093139715 0.020659531
-0.088523418 0.09886381 0.021134833
0.041446853 0.10097145 0.021164099
0.042707305 0.098410696 0.020362852
-0.0864821 0.10500145 0.020858031
0.03999481 0.10490308 0.020667771
-0.09075322 0.11346117 0.019489966
-0.087347709 0.11131812 0.021203605
0.035146084 0.11314774 0.021401254
0.037427757 0.10978356 0.020838596
-0.09274219 0.11663217 0.020942889
0.02965476 0.119512 0.02177486
0.032362733 0.11680132 0.020843694
-0.094444834 0.12282827 0.020777155
-0.043622997 0.12496009 0.022210769
-0.03899904 0.12511113 0.022314761
-0.032766126 0.12449695 0.021321733
-0.027155137 0.12373628 0.021035397
-0.022145839 0.12504257 0.021475898
0.022080675 0.12519595 0.021666482
0.026556902 0.12222346 0.020854469
-0.09359809 0.12896667 0.020744508
-0.045383494 0.12916146 0.02101513
-0.038935371 0.12645355 0.019243753
-0.034338597 0.12614566 0.018535666
-0.019658329 0.12667358 0.019897742
-0.015244104 0.12793776 0.021109065
-0.0090672746 0.12966885 0.020981492
-0.0028873947 0.13045444 0.021181267
0.0031107084 0.13085701 0.020913528
0.0090634096 0.13036779 0.021087674
0.014958935 0.12858859 0.020983618
0.019449677 0.12665123 0.020463195
-0.091077045 0.13506918 0.020623367
-0.089879401 0.136494 0.023211399
-0.04930111 0.13584274 0.02147666
-0.047265314 0.13340938 0.020285575
-0.091144957 0.14130358 0.020672252
-0.051690727 0.14084868 0.020888515
-0.091474175 0.14679527 0.020645397
-0.052784864 0.14712425 0.020833543
-0.090545975 0.15021721 0.020122381
-0.087450549 0.15226887 0.020961372
-0.080784261 0.15484792 0.020834077
-0.075994022 0.15578164 0.021805381
-0.061286412 0.1557945 0.021822529
-0.056781799 0.15459992 0.020995852
-0.053488765 0.1517275 0.020991599
-0.073556572 0.15613857 0.020557089
-0.068853304 0.15629743 0.020938266
-0.063758597 0.15614672 0.020524666
-0.0661617 0.035356801 0.0288449
-0.062902309 0.034495175 0.026913999
-0.05716911 0.034166433 0.027176823
-0.051290762 0.034105666 0.027361296
-0.044695716 0.034030084 0.028213885
-0.038841262 0.034315154 0.027567649
-0.03367595 0.034641057 0.026696308
0.0057999501 0.035574902 0.024259901
0.0096906293 0.035158917 0.026332168
0.014722279 0.034795068 0.026879447
0.020564299 0.035225514 0.026624683
-0.066333845 0.037669651 0.029212249
-0.06412255 0.039957717 0.026776973
-0.030638799 0.037628099 0.028480399
-0.026945019 0.038076852 0.027122093
-0.020838527 0.03835145 0.026959645
-0.015208076 0.038497221 0.026823271
-0.0087887933 0.038631946 0.027053157
-0.0031104931 0.038771026 0.026903536
0.0032257927 0.038557716 0.026832866
0.0079015782 0.037444092 0.028100688
0.023446867 0.036870867 0.028511032
0.027050728 0.038341288 0.027197292
0.032765441 0.040187996 0.026569506
0.038319346 0.041052252 0.02543507
-0.061801612 0.043708067 0.027775509
-0.056906417 0.046222888 0.027029531
-0.053500898 0.04769665 0.025159549
0.033232462 0.043407023 0.029237567
0.039307434 0.043446347 0.028282417
0.044754818 0.045405958 0.026993632
0.048616868 0.046593469 0.025154533
-0.052534398 0.051122326 0.027148383
0.046913549 0.048632927 0.028958375
0.050779946 0.050808087 0.026990851
0.054816417 0.053357016 0.02495808
-0.052211784 0.056968361 0.027138475
0.052192599 0.056645781 0.029003037
0.055584501 0.057535805 0.025935942
-0.067754224 0.06500531 0.026191764
-0.063051417 0.063395455 0.027104881
-0.057445977 0.061915915 0.027317105
-0.05310012 0.061070461 0.028540641
0.04117943 0.063429162 0.029203469
0.044491939 0.063819885 0.028558552
0.051589303 0.063255899 0.028839162
0.055911463 0.062869348 0.026276592
-0.074531473 0.069885179 0.026872179
-0.070173085 0.06717138 0.027621089
0.041477151 0.068371169 0.029117202
0.044316411 0.068510666 0.026390528
0.051096883 0.068114407 0.025985328
0.055325545 0.067431562 0.025048893
-0.079724766 0.075723454 0.026595587
-0.077218242 0.073180363 0.028116902
0.043204561 0.075154476 0.027032163
-0.084337726 0.082638428 0.025778886
-0.082576104 0.080027163 0.02766587
0.043465205 0.081257679 0.026796231
-0.085381225 0.087243959 0.026527304
-0.083772697 0.086609878 0.029338984
0.041585021 0.088874057 0.02928566
0.043326989 0.086605102 0.026525294
-0.08602529 0.09310253 0.027372798
0.041327536 0.093996607 0.028217545
0.042811822 0.092565544 0.025680281
-0.085818626 0.098967873 0.026853558
-0.083340853 0.1012905 0.029385025
0.040153462 0.099338077 0.02705639
0.042335499 0.097258702 0.024161501
-0.084931448 0.10469954 0.025237177
-0.082673766 0.10586844 0.028015185
0.035359949 0.1073545 0.0293098
0.038115297 0.10482821 0.026944062
-0.086090006 0.11209478 0.026683068
-0.08277268 0.1097062 0.027898451
0.03403179 0.11149751 0.027509423
0.036818221 0.10906266 0.025303844
-0.091530763 0.11711091 0.026514677
-0.089264087 0.11464212 0.027363487
-0.045371871 0.11938243 0.029319273
-0.041505001 0.119362 0.0299569
-0.032247249 0.11940383 0.029449483
-0.028140241 0.11971841 0.0290669
0.02800772 0.11834501 0.027654717
0.031441782 0.11580299 0.026415147
-0.093288168 0.12283804 0.026784567
-0.048438061 0.12252167 0.029839233
-0.045630056 0.12272177 0.026826974
-0.038453262 0.12232866 0.027105013
-0.033140738 0.12167122 0.0266042
-0.026734341 0.12138575 0.026611259
-0.020995494 0.1232038 0.026962839
-0.015637657 0.12503274 0.027837416
0.0162297 0.1250584 0.028379899
0.021018583 0.1235816 0.027141282
0.025600562 0.12128714 0.026076568
-0.092640877 0.12898909 0.026748946
-0.04860865 0.1297645 0.028384181
-0.047100388 0.12871942 0.025820719
-0.01365955 0.12696326 0.025695251
-0.0088910889 0.12776622 0.026984559
-0.00298409 0.12862359 0.027091363
0.0029781247 0.12880258 0.026933204
0.0089824274 0.12832949 0.02710947
0.014368905 0.12716901 0.02640035
-0.090874031 0.13324308 0.026527878
-0.089269027 0.13659623 0.02684783
-0.050903078 0.1350356 0.027092837
-0.090662196 0.14213333 0.026131444
-0.089687869 0.1402034 0.027627999
-0.05463228 0.14143783 0.029004145
-0.053134173 0.14031549 0.026233468
-0.090781964 0.14619398 0.025695942
-0.088613309 0.14819971 0.027959781
-0.054758687 0.14732927 0.027667176
-0.053751484 0.14699683 0.024741335
-0.086340658 0.1513339 0.026558839
-0.080783382 0.15371223 0.026919555
-0.074908748 0.15502743 0.027114766
-0.068953082 0.15534665 0.027635146
-0.062933408 0.15517068 0.026944501
-0.056630857 0.15320835 0.027041718
-0.053740967 0.15095733 0.024807833
-0.069075182 0.1560612 0.02459386
-0.066599846 0.035451684 0.032455985
-0.063092999 0.034448408 0.032956716
-0.056695826 0.034393538 0.033149641
-0.050855279 0.034474578 0.032970551
-0.045111947 0.034528214 0.033072561
-0.039093032 0.034411259 0.033022135
-0.034714125 0.034904029 0.032430172
0.011283901 0.035321269 0.032835886
0.014813569 0.034833845 0.032911643
0.019328263 0.035328764 0.032896426
-0.066609271 0.037494991 0.033428479
-0.065282844 0.040947702 0.032848909
-0.031229163 0.037865579 0.032262962
-0.026917899 0.038518414 0.032936409
-0.020965749 0.038722012 0.033001654
-0.014677893 0.038861439 0.032841209
-0.0090978201 0.039008114 0.033112425
-0.0029103986 0.039156172 0.03297535
0.0027012629 0.039339717 0.032673556
0.0084912758 0.038183566 0.031897426
0.022478737 0.037327509 0.033435728
0.026162723 0.040240031 0.032323986
-0.063229613 0.044434804 0.033322621
-0.058636654 0.04726015 0.032551404
0.028514242 0.044324186 0.033847131
0.032403965 0.046356436 0.031436305
0.038782556 0.046040822 0.030916095
0.042527251 0.046735048 0.030511849
-0.057181783 0.048095517 0.033665575
-0.05150291 0.051021244 0.033288226
0.0299119 0.0491593 0.035971399
0.033485189 0.050837573 0.033126779
0.039109126 0.050512258 0.03203946
0.044908457 0.050955653 0.031607725
0.048438597 0.053515602 0.030636234
-0.050040636 0.05703475 0.033155791
0.034983531 0.056150358 0.034991622
0.038692608 0.056838557 0.031908713
0.044866331 0.057147417 0.031839259
0.049478769 0.057648882 0.030643754
-0.062205389 0.065136276 0.03127091
-0.056820482 0.064490527 0.032629639
-0.051271707 0.062998086 0.033767469
0.03887241 0.063006401 0.032932982
0.045832366 0.061330695 0.030507701
0.049265623 0.061425723 0.030354375
-0.072874524 0.071172155 0.0315549
-0.068885647 0.06936951 0.032694481
-0.063577689 0.067619786 0.034021065
-0.058175366 0.0668687 0.035456434
0.039503094 0.069311529 0.033091053
-0.078683898 0.077456802 0.030958526
-0.075031005 0.074934818 0.033013705
-0.071211904 0.072835997 0.035146877
0.039938413 0.075036071 0.032793414
-0.080033205 0.081096694 0.032619648
-0.07682737 0.07951843 0.034799259
0.03984965 0.081049994 0.033405535
-0.081359953 0.087133192 0.032951441
0.039788242 0.086782448 0.03308339
-0.081175603 0.093205407 0.033269584
0.038851503 0.092972584 0.033143088
-0.080945082 0.098739401 0.032760762
-0.077608101 0.0994583 0.035716765
0.035108913 0.099615023 0.034923151
0.037514184 0.098481104 0.032225478
-0.079736158 0.10464719 0.03195294
-0.076952703 0.10462593 0.034929857
0.033279788 0.10497807 0.033414871
0.036494572 0.10270775 0.03096205
-0.0903944 0.113745 0.0354564
-0.087032504 0.11213265 0.033222251
-0.08126843 0.10969313 0.03299116
-0.077431001 0.108115 0.035739899
-0.055778585 0.11332786 0.035689343
-0.050994944 0.11322224 0.035328161
-0.04499932 0.113222 0.035168491
-0.038873799 0.11306185 0.034960687
-0.033008236 0.1132069 0.034741893
-0.027935969 0.11351943 0.035241429
0.0227568 0.1133265 0.035710603
0.027875399 0.11157171 0.034492563
0.031571865 0.11040557 0.031814795
-0.091838628 0.11670177 0.032984324
-0.089864202 0.114175 0.031664401
-0.054635551 0.1165225 0.035371676
-0.050943363 0.11739933 0.033179056
-0.045152809 0.11670784 0.032034706
-0.038886644 0.1172377 0.03190437
-0.033109251 0.11696182 0.031859115
-0.026787704 0.11706358 0.032426275
-0.021461757 0.11823394 0.03410013
-0.016735476 0.11922024 0.035425652
0.0115015 0.119616 0.0358941
0.015499678 0.11910155 0.035179392
0.021563567 0.11731824 0.034073908
0.026665511 0.11591522 0.031808533
0.030538701 0.114047 0.0302625
-0.092634559 0.12286183 0.032775156
-0.05066001 0.12342925 0.033281591
-0.020115359 0.12140751 0.03113999
-0.014699296 0.1225486 0.032540713
-0.0090246322 0.12397153 0.032891143
-0.0030134923 0.12380784 0.034127496
0.0033035825 0.12360777 0.033943873
0.0091969827 0.12341355 0.03368327
0.014836323 0.12238261 0.032583192
0.020459082 0.12124626 0.031557061
-0.091519736 0.12899567 0.032741699
-0.054586425 0.13007675 0.03556085
-0.051399842 0.12892626 0.032880481
-0.0065698102 0.12629649 0.030437902
-0.0025610307 0.12650317 0.030878916
0.0026754793 0.126491 0.030820455
0.0079809967 0.12637325 0.03055485
-0.090210713 0.13242517 0.032723498
-0.089683898 0.13585599 0.032705192
-0.061045051 0.136702 0.03544325
-0.056403313 0.13503774 0.033808056
-0.052602075 0.13354099 0.031428937
-0.089287005 0.14133672 0.032664832
-0.061015036 0.13940689 0.03500532
-0.057600044 0.14114386 0.032356616
-0.08692316 0.14687112 0.032727178
-0.082500592 0.14935461 0.035030358
-0.060199399 0.14968 0.035888899
-0.057717606 0.1473816 0.032818433
-0.084233701 0.150005 0.032317001
-0.080873355 0.15146807 0.032656118
-0.07488364 0.15298106 0.033071652
-0.068894662 0.15339616 0.033090856
-0.062758282 0.15296817 0.033252202
-0.058228873 0.15205617 0.032252699
-0.066147 0.0353356 0.036125399
-0.062982313 0.034795593 0.0389756
-0.057179548 0.034457423 0.039132949
-0.051109638 0.034549642 0.039017394
-0.044965167 0.034603741 0.038927637
-0.039200224 0.034640212 0.03930866
-0.033879444 0.034524288 0.039455995
-0.0298138 0.034490298 0.0411187
-0.0085064005 0.034926049 0.041714251
-0.0023883947 0.034830753 0.040817373
0.0034953856 0.034726799 0.039575301
0.0088936007 0.03464856 0.03911332
0.015073623 0.034942534 0.03886272
