ply
format ascii 1.0
comment PCL generated
element vertex 1326
property float x
property float y
property float z
element camera 0
property float view_px
property float view_py
property float view_pz
property float x_axisx
property float x_axisy
property float x_axisz
property float y_axisx
property float y_axisy
property float y_axisz
property float z_axisx
property float z_axisy
property float z_axisz
property float focal
property float scalex
property float scaley
property float centerx
property float centery
property int viewportx
property int viewporty
property float k1
property float k2
end_header
-0.015807088 0.12745675 0.0019734327
-0.012306713 0.1283415 0.0016997101
-0.0091635836 0.12910368 0.0018561151
-0.00638365 0.12942667 0.0010450974
0.0102193 0.129407 0.00060435198
0.012577184 0.12898543 0.0012444279
0.015722869 0.12786953 0.0015565959
0.018818017 0.126579 0.002120933
-0.088386729 0.13154051 0.0027698399
-0.086674273 0.13148251 0.00079398148
-0.049246199 0.13238201 0.000177088
-0.04748638 0.13087954 0.0018229906
-0.0070728501 0.12974 0.0027455001
-0.00482208 0.1298594 0.0018056876
-0.0016767647 0.13012519 0.0013994315
0.0020197029 0.1304204 0.0014997981
0.005310066 0.1303449 0.0014809573
0.008661502 0.1300137 0.001584569
0.011731399 0.12965301 0.00258648
-0.087833591 0.13404299 0.0029371434
-0.085932247 0.13522443 0.001384898
-0.04971135 0.13483162 0.0014548809
-0.048761439 0.13385133 0.0029358801
-0.085473903 0.13826086 0.0019683933
-0.0832173 0.13898 0.00031516299
-0.050980639 0.13836192 0.0016629223
-0.084821962 0.14089167 0.0028777532
-0.082680948 0.14210367 0.0012998758
-0.050814122 0.14186834 0.0019082817
-0.082597151 0.14526087 0.0016761267
-0.050154399 0.14417033 0.0010386776
-0.047392521 0.14489414 0.0020400016
-0.044751316 0.14633901 0.0021492229
-0.082010344 0.14856049 0.0019780695
-0.080222949 0.14936951 0.00017019501
-0.042467751 0.14781025 0.0019261662
-0.0398794 0.14948125 0.0019060754
-0.081494346 0.1513245 0.0027598301
-0.078732729 0.15270001 0.0013783481
-0.064161345 0.15336725 0.00064497459
-0.061473686 0.15292852 0.0007590332
-0.0590115 0.15395799 0.00054242002
-0.039096601 0.15104926 0.0029365199
-0.036753468 0.1524855 0.0018596912
-0.034354236 0.15315367 0.00044316953
-0.075660467 0.15474215 0.0016541294
-0.071927458 0.1559581 0.0017013496
-0.068193011 0.1552489 0.0017628142
-0.065096505 0.15429041 0.002129274
-0.061066937 0.1547782 0.0027481499
-0.05814635 0.15608099 0.0011527092
-0.035817333 0.15559167 0.0030577166
-0.033356376 0.15586048 0.0016353293
-0.030509699 0.1566235 0.00049007451
-0.056854237 0.15886901 0.0018536847
-0.055358998 0.16036651 0.001692756
-0.04009695 0.16016838 0.0024330374
-0.036996402 0.1603772 0.0011458462
-0.033289183 0.158783 0.0026084918
-0.0299921 0.15883026 0.0012412505
-0.0276413 0.15959799 0.000270855
-0.054088753 0.16194412 0.0015464366
-0.051569335 0.1640116 0.0017625525
-0.039651982 0.16309915 0.0022015183
-0.03839305 0.16308701 0.00049178797
-0.049699225 0.1654595 0.0014133254
-0.047663756 0.16670844 0.0019070983
-0.044353899 0.16739699 0.0031796
-0.0392184 0.16566351 0.0027693575
-0.037702601 0.16620001 0.0011990836
-0.046474248 0.168254 0.00059967098
-0.043713398 0.16885187 0.0016626426
-0.040514462 0.16954768 0.0017795147
-0.037197627 0.16973199 0.0010600499
-0.071228482 0.034284361 0.0050135618
-0.068470933 0.033702865 0.0051572989
-0.064860955 0.033593014 0.0054511656
-0.061268859 0.033530116 0.0054723835
-0.057600845 0.033520438 0.0049433899
-0.054078143 0.033496898 0.00593659
-0.050597418 0.033499569 0.0047110035
-0.04726186 0.033579957 0.0054460554
-0.043476626 0.033665098 0.005556324
-0.040212665 0.033598449 0.0049215318
-0.036852699 0.033676185 0.0054032654
-0.0343653 0.033750102 0.0068747103
0.0021343906 0.034467217 0.0054040416
0.0051841433 0.034239914 0.0049934699
0.0076680966 0.034436036 0.0043910597
0.019617524 0.034752302 0.0044870302
0.022474566 0.034493353 0.0054497547
0.026452834 0.034835134 0.0053159469
-0.072427906 0.036775656 0.0054009529
-0.029132759 0.038103998 0.0047284523
-0.026205482 0.038185298 0.0054319929
-0.0227952 0.038228665 0.0051769684
-0.019375701 0.038285535 0.0049127853
-0.015766863 0.038374759 0.0055645788
-0.0123372 0.038448434 0.0052848966
-0.00927372 0.038476799 0.00588152
-0.0013052046 0.037291016 0.0056536621
0.0002421419 0.036314499 0.0042732898
0.0062194099 0.035134099 0.0065492801
0.0089646904 0.035797298 0.0046463902
0.0117672 0.035313535 0.0037913534
0.0156997 0.035996426 0.0039602951
0.01901968 0.035684802 0.0056594722
0.029801266 0.035378266 0.0054930132
0.033455867 0.036535066 0.0052050236
0.036872301 0.037666898 0.0054778866
0.038624749 0.038316101 0.0055351099
-0.07092534 0.0402999 0.005285718
-0.069552697 0.041870002 0.0040244502
-0.011111351 0.038526848 0.0036422601
-0.0085423952 0.038574565 0.0050282665
-0.0053080502 0.038597066 0.0056638438
-0.002616155 0.0385658 0.0044165049
0.040663101 0.039267361 0.0052716644
0.044039596 0.041169234 0.0052560964
-0.068159766 0.04382991 0.0048738727
0.047082569 0.04296137 0.0052642431
0.049565401 0.044615265 0.0052455235
-0.065067247 0.04591665 0.0051869303
-0.061870851 0.047024101 0.0051797926
-0.058675479 0.048223101 0.0055098375
0.051341761 0.046170235 0.0052319528
0.052873801 0.047663067 0.0052089631
-0.057408214 0.05079845 0.0051790136
0.05514618 0.049901739 0.0050160862
0.056578476 0.051895075 0.0054436824
-0.056624524 0.054180235 0.0051655625
0.057390381 0.05440098 0.0051761051
-0.060322247 0.059076153 0.0059651798
-0.057812799 0.057403501 0.0052319658
0.058664612 0.057995334 0.0051744068
-0.070114203 0.062579699 0.0062174001
-0.068299063 0.061861452 0.0053564101
-0.064706832 0.06050906 0.0053201341
-0.061314266 0.059651803 0.0046471367
0.059150472 0.061499424 0.0046412498
0.059788547 0.061596401 0.00613312
-0.074345678 0.066226259 0.0057825344
-0.07178086 0.064162843 0.0050099888
0.05886234 0.065122187 0.0050040265
0.0595925 0.063609302 0.0061369701
-0.075953178 0.06814982 0.0049614045
0.0556724 0.069872797 0.00398853
0.0578916 0.068556026 0.0051394519
-0.081293076 0.073414721 0.005030565
-0.079042725 0.071315311 0.0050776531
0.047358848 0.071384221 0.0048191212
0.050716776 0.071227893 0.0050043464
0.054103862 0.070893519 0.0049256673
0.056622196 0.07060428 0.0061256317
-0.082833208 0.075560704 0.0050160121
0.046204273 0.075017303 0.0052398662
-0.084595032 0.079089269 0.0050135935
0.0460664 0.078524232 0.0051898686
-0.085635602 0.082235478 0.0056301388
0.045978095 0.082016334 0.0051880488
-0.088097714 0.086752273 0.0054786503
-0.087080963 0.084659569 0.005483693
0.045497101 0.086183697 0.0041942098
0.045711599 0.08535672 0.0053887381
-0.088324793 0.08943104 0.0054699816
0.0454465 0.0903989 0.0041722399
0.045636896 0.088828526 0.0053030648
-0.087864198 0.092337847 0.0057773567
-0.087309599 0.09365613 0.0047525098
0.045223802 0.092632458 0.0049760798
0.045525201 0.091811702 0.0061729802
-0.087930463 0.096177034 0.0054270965
0.044440255 0.095959738 0.0051738564
-0.087868072 0.099101901 0.0057662386
-0.086917035 0.10042354 0.0047260965
0.043013722 0.10010012 0.0051704999
-0.086474895 0.10355522 0.0054027704
0.041668769 0.10355901 0.0051667034
-0.085637711 0.10692751 0.0053803734
0.039782558 0.10695481 0.005025534
-0.085537083 0.11031678 0.0053291526
0.037457787 0.11053566 0.0052215974
0.038758799 0.108855 0.00681782
-0.088572748 0.11412551 0.0055303373
-0.087105855 0.113078 0.0048049199
0.034430299 0.11474451 0.0052745156
0.035716549 0.112916 0.00500073
-0.090141468 0.11725067 0.0053028911
0.030958476 0.11861926 0.0054408154
0.032687541 0.11685658 0.0052585793
-0.090388708 0.12064183 0.0053012366
0.026815565 0.12189733 0.0048446371
0.029253727 0.12004425 0.0053276587
-0.091015548 0.124722 0.0062760701
-0.090112671 0.12382757 0.0050001019
-0.0315414 0.125778 0.00387502
-0.029578686 0.12543972 0.0050150244
-0.026337443 0.1256157 0.0053726598
-0.0241862 0.125789 0.00366503
0.02286293 0.1248456 0.0052781845
0.025389422 0.123163 0.0056469538
-0.090110213 0.12745284 0.0052770437
-0.043312352 0.129086 0.0051953425
-0.040103961 0.12846114 0.0052926312
-0.036608636 0.12776436 0.0054775714
-0.033277992 0.12663534 0.0051878844
-0.031308401 0.126018 0.0068849898
-0.0227938 0.126404 0.0053399401
-0.0193462 0.12727599 0.0051632361
-0.015805399 0.12821615 0.0052936031
-0.012542 0.129044 0.005340402
-0.0102634 0.129467 0.0044497098
0.0138044 0.129402 0.0047499798
0.015732789 0.1286649 0.0053267237
0.019138224 0.12699266 0.0051583876
0.021116201 0.126093 0.0060537499
-0.089846648 0.13088967 0.0052400944
-0.046747055 0.13179111 0.0050173821
-0.045147669 0.13000166 0.0057171001
-0.0106876 0.12955301 0.0057383799
-0.0084740324 0.12986133 0.0051119435
-0.0051665013 0.13044386 0.0053107971
-0.0017330045 0.13086556 0.0051506711
0.0018293682 0.13116674 0.0051721176
0.0054678814 0.13111337 0.0051002824
0.0086582322 0.13081938 0.0053819953
0.011931486 0.13005513 0.0051592737
-0.088841029 0.13500001 0.0052215313
-0.048318543 0.13461885 0.0053386004
-0.087627403 0.137747 0.0062003201
-0.086911619 0.13855839 0.0049989037
-0.049375739 0.137973 0.0052126767
-0.048957899 0.137072 0.0064040199
-0.085389562 0.141856 0.0051776702
-0.049600787 0.14165969 0.0052421074
-0.084649175 0.14530925 0.0056593702
-0.0839414 0.145292 0.0041676052
-0.047298599 0.14510214 0.0052469745
-0.044977248 0.14633 0.0041103
-0.084905498 0.14874817 0.0056710765
-0.083860338 0.14872934 0.0041642864
-0.043786429 0.14834942 0.0054147802
-0.041855998 0.149196 0.00419837
-0.084236898 0.1516705 0.00639555
-0.082104981 0.15221702 0.0050142449
-0.079333603 0.15353234 0.0047758934
-0.042829741 0.15154961 0.0063420674
-0.040721428 0.1524258 0.0050034919
-0.038468201 0.15361001 0.00387723
-0.078072071 0.15428233 0.0057016262
-0.075149328 0.15514798 0.0052662385
-0.071662709 0.1556195 0.0052292063
-0.067984901 0.15526599 0.0052412776
-0.064797096 0.15497766 0.0052572521
-0.061696686 0.15529238 0.0051458753
-0.05874303 0.15713567 0.0053206999
-0.043737322 0.15616424 0.0064124372
-0.040217511 0.15583688 0.0057916287
-0.037291743 0.1559896 0.0042162677
-0.057261188 0.15891042 0.0046106274
-0.0549227 0.16025001 0.0057778968
-0.043759666 0.15939921 0.0057159914
-0.04095725 0.15871425 0.0042693224
-0.036450703 0.15803875 0.0041961824
-0.053097598 0.16184899 0.00483099
-0.050894715 0.16263326 0.0052907215
-0.047389433 0.16308312 0.005820157
-0.043801568 0.16311844 0.0054115439
-0.041311074 0.16308676 0.0041327425
-0.046838101 0.165666 0.0040573925
-0.043782018 0.16586614 0.0043397914
-0.041008148 0.16599725 0.0038097999
-0.071214274 0.034613173 0.0080273226
-0.068302192 0.034021836 0.008903455
-0.064585403 0.033700529 0.0087353457
-0.06128088 0.033629086 0.0090083126
-0.05766575 0.033544112 0.0086341975
-0.05410618 0.033547316 0.0093609355
-0.050764214 0.034022238 0.0084891217
-0.04734502 0.034639824 0.0075015407
-0.043775368 0.034818131 0.0076163872
-0.040256262 0.034121297 0.0080561042
-0.036653031 0.033754073 0.0092479745
-0.033511333 0.033747669 0.008860494
0.0017473355 0.034402523 0.0090705222
0.0045103035 0.034072265 0.0084012067
0.023015875 0.034492448 0.0082029495
0.02606287 0.034603011 0.008115096
0.028683133 0.034827366 0.00888234
-0.071640067 0.036494181 0.008691947
-0.069773898 0.0382195 0.0100596
-0.047225166 0.035739735 0.008485497
-0.0438907 0.035852436 0.0084614092
-0.040507674 0.035521574 0.0094492324
-0.0381696 0.035145801 0.0102677
-0.026356572 0.038023729 0.0090408223
-0.022889683 0.038141903 0.0085603166
-0.019207336 0.038269088 0.0085907765
-0.015634134 0.038293801 0.0092925504
-0.012308934 0.038390715 0.0083706202
-0.0087742945 0.038448799 0.0087327361
-0.0054588178 0.038468122 0.0093881879
-0.0017830183 0.036777321 0.0087523106
0.020674899 0.035823353 0.0079132905
0.022222925 0.035243727 0.0092195328
0.030661225 0.035131823 0.0086932871
0.033629917 0.035914119 0.0085783815
0.036697198 0.037118334 0.008424717
0.039051 0.038078301 0.0085836202
-0.070859805 0.040074181 0.0079650301
-0.069029979 0.04037898 0.0095332945
-0.0109445 0.0385116 0.0073272102
-0.0058487747 0.038537048 0.0083372947
0.041153274 0.039169125 0.008329358
0.044262771 0.040750086 0.0086933505
0.0456517 0.041356198 0.0092396699
-0.067990303 0.043024629 0.0084205447
-0.064908236 0.044641417 0.0092527186
0.048465826 0.043113977 0.0087402025
0.050524849 0.044690624 0.0087251356
-0.063489601 0.045879148 0.0082193045
-0.06119154 0.046284441 0.0089074913
-0.057650138 0.047916226 0.0089974739
0.051993832 0.046186399 0.0082126437
0.053752683 0.047535881 0.0090104658
-0.056517452 0.050705668 0.0080625629
-0.055285234 0.050883833 0.0098492634
0.055705599 0.049382601 0.0086976327
0.057229549 0.051606011 0.0086866487
-0.055311728 0.053748421 0.0089416001
0.058421399 0.054505214 0.0086742258
-0.063697502 0.059360702 0.0104272
-0.061393764 0.058945291 0.0085665993
-0.057527453 0.057607025 0.0085901916
-0.05548035 0.056188352 0.0091155246
0.059178725 0.057012476 0.0079238778
0.059799902 0.058106881 0.008965998
-0.0707165 0.062394328 0.0089632906
-0.068182848 0.061094701 0.008825521
-0.065020949 0.060067281 0.0086257188
0.060472652 0.061056055 0.0087912083
-0.074585013 0.065891899 0.0084831547
-0.072507501 0.06396132 0.0084478976
0.059436701 0.066384703 0.0071381102
0.060222398 0.064942606 0.008778655
-0.077599816 0.069339417 0.0085324422
-0.076089479 0.067620084 0.0089225322
0.059092999 0.068789251 0.0081909988
0.059808034 0.068271868 0.009807623
-0.081248254 0.07275217 0.0085380087
-0.079325795 0.070544526 0.008861782
0.048114263 0.072780982 0.0088237422
0.050767008 0.072678827 0.008468356
0.054266054 0.072611451 0.0086274166
0.057467375 0.071099669 0.0085500404
-0.08291512 0.07558956 0.0085263019
0.046571121 0.075406782 0.0085471692
-0.085029908 0.078479581 0.008513364
0.046357602 0.078551389 0.0086853178
-0.086251751 0.082061857 0.0086973887
0.046276912 0.082044594 0.0086798305
-0.088233307 0.086789593 0.0089766225
-0.086878926 0.084673524 0.0089809448
0.04601761 0.085524648 0.0086752335
-0.089039057 0.089499488 0.0089633074
0.04578701 0.089018352 0.0086695058
-0.088775314 0.092860498 0.0089458162
0.045286026 0.093199447 0.008664255
0.045564175 0.091813304 0.0086661596
-0.089024514 0.096259311 0.008925315
0.044608429 0.095972486 0.0086639831
-0.088717394 0.099619813 0.008912921
0.043364041 0.099842235 0.0084643038
-0.087935336 0.10287242 0.0091072572
-0.087113574 0.1046878 0.0085853012
0.041498624 0.10424349 0.0086634727
0.042296365 0.10241566 0.0089975968
-0.086346924 0.10697349 0.0088669723
0.040023733 0.10697251 0.0086734872
-0.08845187 0.111857 0.0093524503
-0.086385861 0.10994689 0.0086848773
0.037345856 0.11096414 0.008771589
0.038714752 0.109051 0.00893855
-0.091305353 0.1146245 0.00983328
-0.08987847 0.11365867 0.0084898584
0.034494702 0.114894 0.0091224676
0.03572223 0.11315243 0.0085984813
-0.091992423 0.1174449 0.0089468993
-0.090800397 0.115922 0.0073017799
0.031232599 0.118751 0.0098088002
0.032605968 0.1172329 0.0086175529
-0.092206463 0.12069613 0.0087873023
0.027557865 0.12200534 0.0084429672
0.029320572 0.1204672 0.0088118035
-0.092345141 0.12407941 0.0087729907
-0.029674558 0.12574343 0.0085266382
-0.0266272 0.12586249 0.0086011263
0.023119261 0.12515099 0.0085737649
0.025637502 0.12347812 0.0089768441
-0.091901973 0.12749413 0.0087650595
-0.042746264 0.12928234 0.0090543935
-0.040370975 0.12870723 0.0086178659
-0.036908224 0.12800878 0.009066727
-0.033321068 0.12690122 0.0085801035
-0.0311244 0.126183 0.0098794503
-0.0248162 0.12625401 0.0092614302
-0.022724474 0.12675714 0.0085665407
-0.018971587 0.12776957 0.0088968044
-0.015505034 0.12865317 0.0085423915
-0.013347334 0.129223 0.0090910802
0.016245924 0.1288045 0.0087036481
0.01931279 0.12727562 0.0085233981
0.0211666 0.1263815 0.0096242446
-0.091535985 0.13062167 0.0091309501
-0.090807401 0.13182567 0.00756968
-0.046042934 0.131981 0.0083337268
-0.044370018 0.13026841 0.0088459579
-0.0114552 0.12963276 0.0087008374
-0.0088428929 0.13013287 0.0085797831
-0.0052781799 0.13077025 0.0089936238
-0.0017756061 0.13121101 0.008850324
0.001642535 0.131495 0.0086841602
0.0051381043 0.13155079 0.0087284697
0.0086787781 0.13119337 0.008774329
0.01224494 0.13030019 0.0087620988
0.0143628 0.129629 0.0085446443
-0.089781456 0.13502593 0.0087163206
-0.04749709 0.13443018 0.0090483148
-0.088026047 0.13836172 0.008917178
-0.0872747 0.139127 0.0071928902
-0.049117699 0.138604 0.0074035898
-0.048674941 0.13774113 0.0091155097
-0.087663062 0.14191134 0.010170533
-0.086609833 0.14188588 0.0081890887
-0.049374279 0.14168517 0.0089061586
-0.088344947 0.14537349 0.0096863899
-0.086368002 0.1453425 0.0077003622
-0.049402669 0.145262 0.0097986767
-0.048094682 0.1456562 0.0079789441
-0.08841382 0.14848921 0.0098316744
-0.086574018 0.14894585 0.007935904
-0.0471339 0.1484641 0.0088610686
-0.0447414 0.14917301 0.00704529
-0.085677296 0.15171275 0.0088876886
-0.082288995 0.15338601 0.0083235661
-0.047001205 0.15228468 0.0094615845
-0.044447862 0.15232587 0.0077517331
-0.081893399 0.154016 0.0102104
-0.078515314 0.15476385 0.0088798823
-0.074913383 0.15549786 0.0086834757
-0.071541548 0.155757 0.0084214257
-0.068445802 0.15571749 0.0089311861
-0.064823315 0.15550162 0.0087842783
-0.061221775 0.15578356 0.008791077
-0.057903599 0.1566228 0.0090930443
-0.054422233 0.15723966 0.0097689228
-0.050242551 0.15605675 0.010215128
-0.047090769 0.15574922 0.0088159386
-0.0439751 0.15507451 0.0073763798
-0.056791499 0.158113 0.0075145299
-0.053755201 0.1590184 0.0081183929
-0.050697841 0.1591967 0.0084769186
-0.047143761 0.15921345 0.0078988047
-0.049890298 0.161248 0.0070143202
-0.067787103 0.034473833 0.011973483
-0.06477312 0.033926699 0.012062856
-0.061256614 0.0337312 0.012196857
-0.057697169 0.033613499 0.012271999
-0.054146376 0.03356564 0.012790957
-0.03618655 0.034416724 0.011775625
-0.033399276 0.033775087 0.012016725
-0.03079515 0.034054551 0.0118419
-2.4352201e-05 0.034877401 0.0110061
0.0014186263 0.034408916 0.012632516
0.0046527376 0.033998977 0.01202148
0.024039101 0.034856599 0.01132975
0.026166901 0.034581881 0.012142171
0.028877035 0.034808401 0.012042333
-0.070268899 0.036098152 0.0106367
-0.068519056 0.036684662 0.012450179
-0.039221998 0.0363262 0.0107899
-0.036906417 0.035688918 0.01243725
-0.026240598 0.037891779 0.012749819
-0.022690602 0.038076282 0.011678416
-0.01934683 0.038171072 0.012403386
-0.015716057 0.038259674 0.012804044
-0.012223301 0.038325999 0.011772017
-0.0088668307 0.038398232 0.012259929
-0.0052434532 0.038386043 0.012228943
-0.0019298209 0.036647107 0.012454499
0.022962799 0.035804685 0.0127021
0.030474467 0.035054166 0.0127623
0.033076119 0.035575118 0.012506351
0.03657148 0.036813121 0.011896441
0.039260235 0.038167201 0.011728934
-0.067318782 0.040149119 0.01149348
-0.065833651 0.040679701 0.01311935
0.041200031 0.039234068 0.012970001
0.04399658 0.040521558 0.0118008
0.046133999 0.041566133 0.012532401
-0.064669095 0.042795736 0.011902249
-0.061337214 0.044293012 0.01237223
-0.058533698 0.04481085 0.01349395
0.048314698 0.042805858 0.01242312
0.050937667 0.044665098 0.0122146
-0.057570081 0.046265319 0.011794283
-0.054669023 0.047800157 0.012468155
-0.052437302 0.048702799 0.0136696
0.053758699 0.047056649 0.012201884
-0.053691983 0.050612129 0.011633828
-0.051803131 0.050990969 0.0134408
0.057151064 0.050890546 0.012186179
-0.053329363 0.054348934 0.011653447
-0.051815849 0.054293532 0.013418733
0.058969367 0.054554764 0.012175217
-0.063974105 0.059249233 0.01287
-0.061395966 0.058517274 0.012100225
-0.057591908 0.057554491 0.012164656
-0.054627668 0.05638 0.011084733
0.060037032 0.057426084 0.012167383
-0.070583276 0.062291924 0.012690051
-0.068331547 0.060880985 0.012106346
-0.065505579 0.059760675 0.0124007
0.060849342 0.060956948 0.012153955
-0.07402806 0.065526739 0.01218948
-0.072329454 0.063937016 0.012100451
0.060826123 0.065120853 0.012151656
-0.078192286 0.069250166 0.012747799
-0.075786352 0.067360356 0.01216297
0.059999347 0.068696998 0.011997514
-0.081312343 0.072779574 0.012040136
-0.079791367 0.070572317 0.012219834
0.048277467 0.073340535 0.012286332
0.050398618 0.073352538 0.01183142
0.054879446 0.073170431 0.012086633
0.058032215 0.07141678 0.012222045
-0.082450494 0.075570166 0.012025975
0.04683423 0.075095467 0.0121633
0.051235303 0.073586047 0.013193
0.053071428 0.073588304 0.0126477
-0.085029766 0.078496896 0.012012713
0.046441365 0.078560166 0.012179666
-0.086564109 0.081850417 0.012133982
0.046197537 0.082039766 0.012172879
-0.088248618 0.086467229 0.012718225
-0.087016165 0.084699504 0.012477
0.045871403 0.085514642 0.012167466
-0.089295276 0.08903645 0.012332626
0.045424499 0.090404399 0.0131633
0.04561615 0.088831268 0.012038687
-0.089381605 0.092911214 0.012439045
0.045234933 0.092499144 0.012160134
-0.089444496 0.096296817 0.01242015
0.044445999 0.095968641 0.01216091
-0.089206725 0.099662624 0.012402754
0.043285012 0.099719681 0.012016843
-0.08846885 0.10300884 0.012384534
0.041579656 0.103697 0.01236048
0.042351399 0.10196166 0.012162867
-0.087759167 0.105009 0.0123721
-0.086869203 0.10701501 0.01236155
0.039919324 0.1070141 0.012164611
-0.088893525 0.11155675 0.012598375
-0.086842284 0.10961239 0.01215226
0.037656389 0.11057411 0.012391455
0.038623601 0.109277 0.0110826
-0.091762424 0.1143295 0.012585
-0.09082675 0.113298 0.0118432
0.03459445 0.11477426 0.01249535
0.035840921 0.11308501 0.012084341
-0.092857413 0.11736377 0.012311099
0.031329401 0.118714 0.0127065
0.032976978 0.1168317 0.01218962
-0.093449928 0.12074217 0.012293615
0.0275416 0.1221605 0.011996251
0.029610135 0.12034255 0.012190209
-0.09339162 0.12411489 0.012270521
-0.029019341 0.12573887 0.0123365
-0.027017698 0.125856 0.012370567
0.023246914 0.12529685 0.012129129
0.026024945 0.12333056 0.012463867
-0.093011908 0.12753034 0.012253501
-0.042700797 0.129142 0.0120276
-0.040258329 0.12838461 0.01244576
-0.0365647 0.127767 0.012305038
-0.033183899 0.12691933 0.012228499
-0.031056335 0.12618534 0.011864699
-0.02528405 0.12620474 0.01201895
-0.02270597 0.12694058 0.012111585
-0.019427599 0.12782668 0.012427417
-0.015952099 0.12873515 0.012065785
-0.0136265 0.12939499 0.0133241
0.016103743 0.128947 0.012338671
0.019103739 0.12757041 0.01214271
0.021615651 0.12624425 0.0122878
-0.092263184 0.13094854 0.012235034
-0.045809533 0.13234134 0.012317534
-0.044527613 0.13057962 0.012133788
-0.011960833 0.12975918 0.012241233
-0.0086536678 0.13035999 0.012248414
-0.0051255184 0.130924 0.012512843
-0.0014882452 0.1313595 0.0123613
0.0021419588 0.13166271 0.012315729
0.0055591147 0.13168275 0.012269226
0.009005229 0.13127801 0.012099664
0.012180323 0.13044602 0.012254856
0.014426567 0.12961233 0.012138533
-0.091084696 0.13368101 0.012219868
-0.090004809 0.13574116 0.012216267
-0.047222458 0.13465564 0.012227187
-0.089143999 0.13848901 0.012205233
-0.048487619 0.13786133 0.012396701
-0.088801906 0.14193612 0.012194655
-0.049652174 0.14167479 0.012390732
-0.089719705 0.14538215 0.012153651
-0.050344586 0.145625 0.012174629
-0.089908138 0.14879002 0.012176023
-0.050161298 0.14851438 0.012412262
-0.088104025 0.1516542 0.012626501
-0.085489519 0.15292166 0.0121478
-0.083776899 0.153466 0.0110188
-0.053006899 0.153493 0.0132253
-0.050894197 0.15229139 0.012132254
-0.048411001 0.15141401 0.0105742
-0.081617557 0.1543982 0.01205736
-0.078821845 0.15520434 0.0124891
-0.075468488 0.15580186 0.012024843
-0.071739689 0.15612723 0.012298789
-0.067965716 0.15603736 0.012375974
-0.064547889 0.15594828 0.012374214
-0.061151527 0.15587136 0.012080713
-0.057694972 0.15581645 0.012137312
-0.05446272 0.15527411 0.012362401
-0.051492099 0.15547101 0.010818566
-0.064678751 0.034424726 0.01538825
-0.0612146 0.033884633 0.015826857
-0.05772708 0.033637967 0.015681984
-0.054986477 0.033514738 0.016180921
-0.035330798 0.034703299 0.016646
-0.033548899 0.033895727 0.015679816
-0.030619124 0.034035299 0.01550935
0.0020352355 0.034442801 0.015903838
0.0051650112 0.034122568 0.015467535
0.0074677202 0.034305599 0.0166757
0.0242732 0.0346695 0.0161217
0.026197582 0.034779813 0.0155015
0.028120199 0.034889501 0.0148787
-0.067005239 0.037009768 0.014385433
-0.065212384 0.036906101 0.015955862
-0.0629014 0.038434599 0.017325999
-0.035552401 0.035565048 0.01492815
-0.0288615 0.035396699 0.017349999
-0.026064759 0.037818801 0.0161024
-0.022789914 0.038048841 0.015429071
-0.019152969 0.038149644 0.015821356
-0.015943319 0.03824804 0.016336601
-0.012299186 0.038301211 0.015273728
-0.0087194005 0.038383998 0.016187686
-0.0050595854 0.038354795 0.015663972
-0.0015419702 0.036732469 0.015794309
0.000120368 0.0351316 0.016257601
0.022610741 0.035734858 0.015913662
0.029758502 0.035285138 0.01594888
0.033070132 0.036205947 0.015605517
0.036910601 0.037532542 0.015574214
0.039095901 0.0382591 0.0140545
-0.064141504 0.040161569 0.01497995
-0.061541934 0.04060692 0.016613351
0.0402846 0.039083298 0.016475821
0.043680258 0.040562399 0.01540524
0.045597199 0.0415054 0.0160287
-0.061087977 0.04257438 0.014834799
-0.057713568 0.043575421 0.015826443
-0.05474947 0.044904832 0.015961166
0.047565378 0.042639159 0.015901459
0.050343283 0.044432558 0.015863899
-0.053586528 0.046422329 0.0148785
-0.051398914 0.047928698 0.015748313
0.053568505 0.047023274 0.015702775
-0.050474845 0.05071947 0.015440886
0.05581855 0.049346 0.0166944
0.057252269 0.05118268 0.01548588
-0.050722659 0.054506887 0.015710354
0.058839776 0.054542884 0.0156796
-0.063425645 0.0591956 0.0151305
-0.061000209 0.058666568 0.015801556
-0.058136456 0.057830401 0.015453179
0.059861891 0.057414528 0.015673012
-0.070705652 0.06260135 0.015989127
-0.068151586 0.061097052 0.015729999
-0.064928956 0.059891917 0.016117029
0.060564935 0.060938343 0.015671493
-0.074278273 0.065966621 0.015846675
-0.072473027 0.064042464 0.015763715
0.060709294 0.064985387 0.015801309
-0.0781627 0.069340564 0.015792402
-0.076015033 0.067797683 0.015646284
0.059369899 0.069183096 0.017176701
0.060161926 0.068186387 0.01529345
-0.081042036 0.072639503 0.01534404
-0.079714373 0.070648581 0.01575784
0.04805382 0.07310234 0.0159861
0.050626051 0.073407024 0.016302375
0.054998338 0.073168643 0.01564212
0.057809152 0.071495004 0.015648209
-0.082458884 0.075571865 0.015594942
0.046611935 0.075382181 0.01548865
0.051422667 0.073613137 0.0149952
0.053205896 0.073616363 0.015666099
-0.084974609 0.078304991 0.015620849
-0.0838603 0.077107802 0.015698301
0.046251811 0.078670852 0.015790874
-0.086520828 0.081988983 0.015989101
0.045982782 0.082024887 0.015671941
-0.087959096 0.086657584 0.015866721
-0.086944543 0.084976777 0.015674701
0.045651414 0.085502461 0.015668789
-0.089217037 0.089151189 0.016154241
0.045307081 0.089115731 0.015799727
0.0455391 0.087594599 0.0141649
-0.089634128 0.092941582 0.015934182
0.044920173 0.09248393 0.015661761
-0.089471839 0.096316554 0.015915899
0.044170309 0.095953286 0.015658898
-0.089366429 0.09968894 0.015896125
0.0419266 0.101462 0.0171593
0.042900812 0.099824093 0.01555972
-0.088518932 0.10302488 0.015874362
0.041286141 0.1035485 0.015661912
0.042236101 0.101506 0.0151693
-0.087720461 0.10502333 0.015364933
-0.08688356 0.10681511 0.016027289
0.03969178 0.10700142 0.015665116
-0.088711284 0.11130057 0.015621757
-0.086771816 0.109347 0.01614804
0.037601382 0.1104332 0.015924532
-0.091834202 0.11398733 0.015957322
-0.090227731 0.11241367 0.016096799
0.034486428 0.11478575 0.016038701
0.035802897 0.11298943 0.015587971
-0.093390338 0.11739541 0.015807023
0.031135267 0.11874933 0.0154868
0.032563131 0.11717388 0.015708534
-0.094144702 0.12077337 0.015787626
0.027518723 0.1220175 0.015914176
0.029321678 0.12043933 0.015757801
-0.09405265 0.12414625 0.015766384
-0.0315791 0.125791 0.0170798
-0.029779637 0.125554 0.015898176
-0.026327129 0.12560885 0.015630687
-0.024162101 0.12587801 0.0168174
0.02340522 0.12510578 0.015763789
0.025746198 0.123471 0.015608466
-0.093620352 0.12755662 0.01575275
-0.043159701 0.12834363 0.015994601
-0.040077399 0.12758337 0.01582945
-0.036559775 0.12727663 0.015630573
-0.03352486 0.12660262 0.015814224
-0.031464301 0.12619799 0.0141678
-0.02260264 0.1265794 0.015622921
-0.019290987 0.12767963 0.015821137
-0.015465511 0.12877063 0.015740899
-0.013542 0.129298 0.016253799
0.016034221 0.12883981 0.015858281
0.019541841 0.1272718 0.015726291
0.021407649 0.12632 0.0154181
-0.092640191 0.13097624 0.01573175
-0.04589295 0.13237999 0.0154276
-0.044775084 0.13049318 0.015418067
-0.011622101 0.12980618 0.015734782
-0.0083537996 0.13036643 0.015648
-0.0051373099 0.13085099 0.015688367
-0.0019956918 0.13121971 0.015707457
0.0016748881 0.13156244 0.015866866
0.0051393942 0.13159788 0.015683362
0.0086532049 0.13125691 0.01571445
0.01244281 0.13026069 0.015677949
-0.091434255 0.1337125 0.01571545
-0.090533152 0.13577187 0.015708376
-0.047458194 0.13496235 0.015836237
-0.09040045 0.13850525 0.015688226
-0.049413636 0.13860367 0.016395135
-0.048692882 0.1373868 0.01559356
-0.091448858 0.14213499 0.016299764
-0.090336874 0.141614 0.014454001
-0.050386027 0.14166008 0.015893118
-0.091295324 0.14540151 0.016651725
-0.090632156 0.14539476 0.01465495
-0.051685873 0.14547738 0.015892176
-0.091341265 0.1481425 0.016145833
-0.09076605 0.14951099 0.015137717
-0.051609572 0.14857325 0.015899951
-0.089230761 0.15160416 0.015837086
-0.085873447 0.15330817 0.015930267
-0.053364251 0.15283763 0.015857374
-0.052123349 0.1508345 0.01593985
-0.082308941 0.15459585 0.015494815
-0.078813717 0.15550134 0.0156522
-0.075072668 0.15610978 0.015816389
-0.071758367 0.15626618 0.015928816
-0.068509176 0.156268 0.015808187
-0.064870447 0.15616912 0.015648523
-0.061328121 0.15594701 0.015683956
-0.057705086 0.15540344 0.015858112
-0.055061441 0.15441599 0.01564832
-0.0630458 0.034581501 0.0177326
-0.061147369 0.034160528 0.019197484
-0.057712741 0.033733927 0.019024
-0.054392844 0.033528827 0.0196425
-0.03536265 0.0346196 0.019417848
-0.033293556 0.033976544 0.019003572
-0.030789251 0.034319401 0.018822052
0.0027389452 0.034633748 0.0190506
0.0050074887 0.034362435 0.019073524
0.0086749317 0.034641903 0.019340033
0.011460967 0.034779098 0.020691333
0.0202497 0.0347399 0.020698
0.02278384 0.034791041 0.019349439
0.0252253 0.034861751 0.0179615
-0.063392177 0.036096651 0.018445348
-0.061863363 0.037089746 0.01943568
-0.0359856 0.035354398 0.018630899
-0.029109299 0.036476903 0.01992975
-0.0261082 0.03784214 0.018959578
-0.022859216 0.038027402 0.018917333
-0.019230375 0.038159333 0.019540627
-0.01551285 0.038257267 0.019007968
-0.012162828 0.038262159 0.019214556
-0.0087793013 0.038388032 0.019661367
-0.0053529399 0.038420085 0.019168744
-0.0014767237 0.037867099 0.01926643
0.0011481589 0.0357632 0.019519711
0.019704167 0.03582773 0.018999467
0.0214998 0.035807099 0.018169399
0.026729699 0.035195377 0.0190592
0.029772978 0.035939239 0.019007098
0.032973107 0.03696768 0.019456968
0.036024183 0.037909385 0.019226817
-0.060407951 0.039123274 0.019079849
-0.058811381 0.040686134 0.019568501
0.038031049 0.038802452 0.019742399
0.040296841 0.039737541 0.019539859
0.043592222 0.041066378 0.018630598
-0.056661949 0.042365149 0.019200701
-0.053715799 0.044181094 0.019192887
0.0450509 0.042396199 0.0206492
0.04697964 0.042925637 0.019414579
0.049998138 0.044702198 0.019141098
-0.051222071 0.047441747 0.01916185
0.05185825 0.046232175 0.019465499
0.0537397 0.047738299 0.019203067
-0.050564386 0.050885007 0.019137412
0.055310667 0.049289931 0.019204
0.057036448 0.051579267 0.019188067
-0.050838821 0.053915281 0.01930709
0.058420237 0.054512832 0.019181633
-0.060956478 0.059345976 0.018647075
-0.058352154 0.058761161 0.019030275
-0.054213781 0.05744192 0.019923002
-0.05197385 0.0562126 0.019401599
0.059139103 0.057005148 0.019431476
0.059643399 0.058779649 0.019181276
-0.0705529 0.062829398 0.018473599
-0.068322718 0.062019058 0.019275811
-0.064899281 0.06071911 0.019355748
-0.061832678 0.059888378 0.019757176
0.059916344 0.061279289 0.019036787
-0.074076504 0.066264898 0.018277399
-0.071951099 0.064418964 0.019357899
0.059432168 0.065717496 0.020591933
0.060033713 0.064883664 0.019052548
-0.077887498 0.069706164 0.0185945
-0.075319938 0.067905039 0.019231016
0.058648489 0.06866774 0.019898752
0.0597202 0.067814 0.018175799
-0.080824703 0.073428899 0.018050399
-0.079409651 0.071763776 0.019347424
0.047071889 0.072230905 0.019578623
0.050491069 0.072680108 0.019136371
0.054037262 0.07265766 0.019131619
0.057251014 0.070977926 0.0189423
-0.08204525 0.075714223 0.018935123
-0.080088504 0.073922597 0.0209531
0.046049517 0.075305678 0.019165134
-0.084781043 0.078771241 0.018819062
-0.083548397 0.077437833 0.019558234
0.045980036 0.078727089 0.019756215
-0.085868612 0.081965387 0.01948001
0.045754388 0.082011774 0.019173034
-0.087621644 0.086111754 0.018967349
-0.086825505 0.085047826 0.0197246
0.045373499 0.085625522 0.01936936
0.045546301 0.084794499 0.0181695
-0.088870458 0.088885099 0.019449588
0.045042381 0.08897116 0.019165488
-0.08949811 0.09295392 0.019427733
0.04455623 0.092459925 0.0191603
-0.089136638 0.096316904 0.019411435
0.04378362 0.095931858 0.019159544
-0.088916682 0.099685736 0.019389512
0.041608468 0.10145 0.019162335
0.042522967 0.099389821 0.019164218
-0.088044241 0.1028804 0.019163081
-0.087326199 0.103661 0.020353399
0.040807515 0.10353283 0.019167384
-0.086355686 0.10635189 0.019356033
0.0384483 0.10837 0.020172101
0.039403126 0.10683099 0.019046687
-0.088588297 0.11186934 0.019330267
-0.086531535 0.10992129 0.019496057
0.037398364 0.11028334 0.019234521
-0.091771379 0.11422201 0.018885601
-0.090182565 0.113027 0.019436672
0.034332816 0.11466233 0.019548334
0.035734475 0.112748 0.0193468
-0.093475699 0.11740901 0.019303666
0.031205252 0.1183735 0.019080751
0.032754935 0.11666413 0.019137625
-0.094532996 0.1214745 0.019782301
-0.094300151 0.12045225 0.019036125
0.0272373 0.12188175 0.019731199
0.02947093 0.12001389 0.01913989
-0.094620541 0.12378528 0.019410888
-0.094409153 0.12553349 0.018758599
-0.043122951 0.1256645 0.020319801
-0.041603599 0.125525 0.020863101
-0.03642955 0.125837 0.020483401
-0.033025336 0.12535216 0.019764001
-0.029878892 0.12458522 0.0193513
-0.026173532 0.12461422 0.019218601
-0.022966499 0.125496 0.01946865
-0.0208042 0.125974 0.020960599
0.023006147 0.12512644 0.019417435
0.025714988 0.12321987 0.018982301
-0.094035178 0.12758917 0.019248985
-0.043927819 0.12765183 0.018994899
-0.04035639 0.12653926 0.019065
-0.036933698 0.12657857 0.0187214
-0.033828001 0.12613399 0.018227967
-0.0214734 0.12637249 0.018512599
-0.019264359 0.1270542 0.01916768
-0.015993472 0.12816928 0.019323358
-0.012655281 0.12908259 0.01948176
0.013918 0.129208 0.020503599
0.015790055 0.12864354 0.019290566
0.019095879 0.1270963 0.019270489
0.021457801 0.12614751 0.018289201
-0.0929735 0.13100034 0.019230545
-0.046124227 0.13196 0.019285498
-0.045150653 0.13003725 0.019467775
-0.0111435 0.12965849 0.018570751
-0.0087824222 0.13001351 0.019243501
-0.0052008191 0.13058674 0.019089799
-0.0017553316 0.13088012 0.019257201
0.0018417637 0.131134 0.019311564
0.0055429302 0.13117525 0.019224163
0.0088469852 0.13081822 0.019276112
0.012233767 0.13004057 0.0190887
-0.091451198 0.133736 0.019215999
-0.090789802 0.13579465 0.019203883
-0.047936201 0.13476256 0.01931333
-0.091047302 0.139231 0.0181913
-0.09084262 0.1384072 0.019390721
-0.049789503 0.13780986 0.01938555
-0.091677621 0.14198223 0.019170666
-0.052612402 0.143167 0.020408301
-0.051393442 0.14141911 0.019250212
-0.091581486 0.14541416 0.019153384
-0.052718449 0.14546649 0.019893151
-0.0523897 0.1454635 0.018384151
-0.091562204 0.14815818 0.019139232
-0.090773068 0.150214 0.0191248
-0.052568365 0.14898933 0.020033866
-0.052262351 0.148563 0.018896751
-0.08901751 0.15177949 0.019174984
-0.085517146 0.15346816 0.019495666
-0.053502012 0.15213399 0.019158689
-0.082224138 0.154607 0.01911745
-0.078950532 0.15546699 0.019260637
-0.075598739 0.15598929 0.019268528
-0.071928151 0.15630727 0.019324262
-0.068215683 0.15634412 0.019177813
-0.064718224 0.15621075 0.019328263
-0.061004788 0.15588501 0.019309849
-0.05749296 0.15516862 0.019376811
-0.055464197 0.154355 0.019070234
-0.063278504 0.034761101 0.023264799
-0.061283864 0.034245886 0.02281235
-0.057908613 0.033924628 0.022353973
-0.054236375 0.03377885 0.023153774
-0.052453499 0.0335708 0.023045
-0.035578333 0.034385268 0.023476133
-0.033297498 0.034028497 0.022170151
-0.0308939 0.034723952 0.02203555
0.0057367627 0.034680527 0.0218812
0.0085775098 0.034626342 0.023090513
0.012195133 0.034559283 0.022852331
0.015862642 0.034586042 0.022539714
0.019267531 0.034792703 0.023175383
0.022142624 0.034945901 0.022261824
-0.064384252 0.035207801 0.023523901
-0.037008867 0.035292834 0.022969633
-0.029107533 0.0371782 0.023505166
-0.026581163 0.0378417 0.022604125
-0.022878442 0.038098853 0.022326399
-0.0192736 0.038229413 0.023206802
-0.015553101 0.038319886 0.022597555
-0.012157316 0.038383972 0.022589767
-0.0087755388 0.038477033 0.0228965
0.0020505751 0.036963511 0.02241298
0.0046945415 0.035828702 0.0235062
0.023061175 0.035230048 0.023555025
0.026013223 0.035997286 0.022558168
0.029589789 0.036975235 0.022404077
0.03310344 0.038071759 0.02285726
-0.060888927 0.040017754 0.022853058
-0.059 0.0412164 0.021702999
-0.0088571599 0.038531099 0.024037
-0.0053520533 0.038549736 0.022628769
-0.0019617721 0.03859083 0.022551958
0.0010139463 0.038624402 0.024165632
0.034253899 0.038702302 0.023615699
0.036941234 0.039295401 0.02272225
0.040473629 0.040841457 0.022968043
0.043041367 0.041632999 0.021564534
-0.057970338 0.04307656 0.022893799
-0.055071399 0.044672225 0.022432776
0.044037297 0.042755526 0.023342775
0.04725273 0.044173818 0.02251005
0.049379401 0.0453908 0.0224152
-0.053055376 0.04679228 0.022870401
-0.052085251 0.04859785 0.022397274
0.0489522 0.045876998 0.023734
0.051026374 0.047126014 0.022888411
0.05271925 0.047818698 0.0214385
-0.051766869 0.051022317 0.022630798
0.0522529 0.049587999 0.024354899
0.054529164 0.050833385 0.022817142
0.056651048 0.052330852 0.02148265
-0.051758535 0.054145452 0.022883836
0.055763301 0.0538969 0.024211001
0.057261698 0.054639731 0.022426413
-0.057567801 0.05897757 0.021501699
-0.054066658 0.058776844 0.023051256
-0.052104302 0.056431349 0.022295751
0.058045048 0.05812753 0.022655744
-0.067151777 0.06249975 0.022111725
-0.064440213 0.06184037 0.022753833
-0.061108224 0.060765725 0.022582719
-0.058485527 0.060127061 0.022671256
0.058671389 0.061467297 0.022502687
-0.071242899 0.065385215 0.022267949
-0.068848714 0.064009048 0.023098225
-0.066248201 0.063188002 0.024348401
0.058329776 0.064814381 0.02282672
-0.075319126 0.068925865 0.022758882
-0.072780482 0.067111865 0.02309582
0.0453129 0.069823697 0.023466
0.04664585 0.069261402 0.024032101
0.055192996 0.069370665 0.023652667
0.057168104 0.068331175 0.02255092
-0.078256965 0.071800791 0.022641039
-0.076713897 0.070678003 0.024462599
0.044940241 0.072036803 0.022746081
0.047237139 0.070576295 0.0221681
0.050753638 0.071047194 0.022764601
0.054053228 0.070988044 0.022362186
0.056081399 0.070423402 0.0216351
-0.081291966 0.075959265 0.022768082
-0.08005517 0.074341439 0.022948533
0.044940226 0.075220011 0.022899156
-0.083149739 0.078576379 0.022411801
0.044922862 0.078959413 0.023565965
0.045583099 0.078936599 0.021595174
-0.08474981 0.082227536 0.022611724
0.045052342 0.082242765 0.02266687
0.0456498 0.080603398 0.021159999
-0.087676704 0.087478995 0.021953151
-0.086344317 0.085669301 0.023105619
0.044885114 0.085451894 0.022663262
-0.088253528 0.0897929 0.022666212
-0.087067202 0.088204801 0.024333
0.044429883 0.088928543 0.022660604
-0.088732824 0.09293808 0.022504931
0.043879699 0.09265314 0.022824699
-0.088521697 0.096320167 0.022693131
0.043192491 0.09602689 0.022523172
-0.088126257 0.099678852 0.022210501
-0.087304801 0.099756397 0.024200451
0.0412887 0.10049391 0.02283382
0.042257801 0.098668732 0.022165233
-0.087577902 0.102333 0.021364801
-0.086302198 0.10366625 0.023055792
0.040243898 0.1034985 0.022667088
-0.084935687 0.10699137 0.022854138
0.038025443 0.1080876 0.0229582
0.039163928 0.10616601 0.022452528
-0.085726239 0.11040208 0.022855951
0.036662556 0.1104089 0.02289049
-0.091442734 0.11495733 0.022051668
-0.089281604 0.11350181 0.022644199
-0.087096155 0.1123475 0.023844749
0.034338702 0.1140135 0.022875348
0.035340365 0.11252733 0.022770934
-0.092984945 0.11749992 0.022796623
0.030710371 0.11832229 0.022662671
0.032409959 0.116495 0.022692572
-0.094196238 0.12080425 0.022790775
-0.0290407 0.12196666 0.023944566
0.026841788 0.12161227 0.022842387
0.028718067 0.12020416 0.022659985
-0.094580099 0.123505 0.0217767
-0.094309442 0.12453425 0.023276187
-0.04390984 0.1245489 0.022998059
-0.040327657 0.12476472 0.022795256
-0.036939412 0.12497744 0.022692023
-0.033160921 0.12395483 0.022702774
-0.029609099 0.12303083 0.022242351
-0.026120367 0.12317216 0.022756817
-0.023036471 0.12412714 0.022705043
-0.020012233 0.12531967 0.023215467
0.01990585 0.12569925 0.023423951
0.022903919 0.12458465 0.022650801
0.024973726 0.12307726 0.022806874
-0.093902647 0.12761223 0.0227568
-0.045978982 0.12801941 0.023491401
-0.045027535 0.12700467 0.021548666
-0.018628867 0.12635499 0.022221332
-0.015839314 0.12731771 0.022722973
-0.012127175 0.12853412 0.022766912
-0.0092012994 0.12919949 0.023264276
-0.0068004499 0.12942401 0.0244883
0.012619515 0.12908001 0.022883829
0.015774639 0.1279013 0.022618759
0.018739849 0.12646784 0.022298366
-0.092693098 0.1310285 0.022735594
-0.046865445 0.13139233 0.022804668
-0.0077770464 0.129804 0.022206135
-0.0050776424 0.13004257 0.022627043
-0.0016785036 0.13024122 0.022801442
0.0016772246 0.13045786 0.022802157
0.0049754861 0.13049355 0.022653101
0.008696815 0.1300779 0.022882055
0.011105 0.12970699 0.0223314
-0.0911678 0.13375734 0.022218933
-0.090248376 0.135582 0.022878103
-0.049458575 0.135517 0.022703275
-0.048391834 0.13409249 0.022622965
-0.090160675 0.13856 0.022684474
-0.050932966 0.1375733 0.02283469
-0.091228016 0.1426855 0.0221636
-0.090539545 0.14132316 0.023168035
-0.052789677 0.14219576 0.023282975
-0.05217535 0.140457 0.022143401
-0.091499515 0.14543287 0.022651589
-0.053312648 0.145459 0.022897363
-0.09138152 0.14776298 0.022336319
-0.090195946 0.14963973 0.02283923
-0.053188387 0.14855063 0.022907024
-0.088383526 0.15155767 0.022406884
-0.085879721 0.1528286 0.022716299
-0.083456852 0.15364701 0.0236229
-0.054137629 0.1523457 0.022813812
-0.081858024 0.15438959 0.022522699
-0.078782916 0.15520768 0.02274405
-0.075410344 0.15579157 0.02267153
-0.071585357 0.15614688 0.022865977
-0.067851812 0.15624233 0.022720389
-0.064719237 0.15613 0.022778066
-0.061490428 0.1557205 0.02291194
-0.05779539 0.15495349 0.02271495
-0.055671602 0.15425101 0.02166475
-0.063855477 0.034555074 0.025957951
-0.061224621 0.034192815 0.026450371
-0.057616059 0.034110028 0.026029345
-0.054278731 0.034165867 0.026556199
-0.05130947 0.033918228 0.026262512
-0.047039025 0.033812173 0.027504575
-0.043321148 0.033850301 0.026482701
-0.040210426 0.033975028 0.0270254
-0.036506779 0.034151822 0.02693744
-0.033536952 0.03440015 0.026048001
0.0094813891 0.034855533 0.025657998
0.012406182 0.034726169 0.026067734
0.015630528 0.034768682 0.025952643
0.018435067 0.034913998 0.026222967
-0.065052018 0.036592219 0.025949897
-0.037287701 0.035383198 0.0246264
-0.031669401 0.035739101 0.0272619
-0.029411433 0.037520833 0.026731551
-0.026028272 0.03813656 0.026276758
-0.022643114 0.038231872 0.026114943
-0.019239949 0.038397867 0.026536433
-0.016208101 0.038441237 0.025858361
-0.0121085 0.038451876 0.025247276
0.00291872 0.038389102 0.0247663
0.0055776113 0.037104588 0.025656657
0.0082036257 0.036175534 0.026826255
0.0109368 0.035027001 0.0276086
0.019958351 0.035114173 0.027107149
0.0228948 0.035982661 0.02629436
0.02657037 0.0375982 0.026148558
0.02974735 0.0381331 0.025016248
-0.063924469 0.040397469 0.026639272
-0.062453199 0.040542327 0.024957426
-0.0151636 0.038522601 0.026959032
-0.0122108 0.038566399 0.026925733
-0.0085608959 0.038608015 0.026863942
-0.0050568036 0.038660515 0.025601232
-0.0016966824 0.038785987 0.026305256
0.0017050261 0.038949598 0.026726415
0.0043362696 0.038807027 0.026943425
0.030044172 0.03911683 0.026538085
0.033452179 0.040358901 0.026514251
0.036698744 0.040734973 0.025932601
0.039113648 0.041148499 0.0251472
-0.061330736 0.043351579 0.026522132
-0.058142483 0.044883568 0.025850199
0.040607531 0.042890031 0.026925668
0.043555789 0.043987088 0.025980929
0.045846902 0.044630803 0.0252202
-0.056721501 0.04662 0.027674699
-0.054550789 0.047198616 0.025954558
0.0453672 0.045653898 0.026943799
0.047611892 0.046674721 0.026233397
0.049703103 0.048213765 0.025944332
-0.052897699 0.049647629 0.026368916
-0.0523142 0.051515318 0.02584376
0.050923288 0.050274644 0.026478684
0.052758802 0.051033098 0.025099499
-0.052095018 0.054387115 0.026289534
0.051941801 0.0525693 0.027488699
0.054036558 0.054087725 0.026370393
0.056033701 0.0553031 0.024595199
-0.0525661 0.05809835 0.025507949
-0.05226358 0.057157032 0.026339259
0.055156857 0.057751782 0.026647096
0.056326002 0.058085904 0.025059735
-0.064424507 0.062796064 0.025065633
-0.061094474 0.062367689 0.02613076
-0.057994135 0.061443336 0.025813289
-0.053934459 0.060394797 0.026740212
0.05492812 0.060884904 0.027485834
0.056677584 0.061517965 0.025610767
-0.070183903 0.065880202 0.024710501
-0.068009734 0.065057904 0.026032256
-0.064863086 0.063827865 0.026721368
-0.062891603 0.063101597 0.026890101
0.043697648 0.065596171 0.027278921
0.047492903 0.066483162 0.027389968
0.050509501 0.066491306 0.02751985
0.054305486 0.065119177 0.026967088
0.056816578 0.064586625 0.025131699
-0.07424657 0.06920594 0.02625088
-0.071871176 0.067596637 0.026190912
-0.069515005 0.066758454 0.02759435
0.043377865 0.068550207 0.026442325
0.047261152 0.068226561 0.02557279
0.050608583 0.06852559 0.025825441
0.054007769 0.068163894 0.025314892
-0.077803805 0.072625399 0.026062718
-0.075943582 0.070816956 0.026504287
0.043584842 0.071430802 0.025893401
-0.081147403 0.076953702 0.025170101
-0.079352513 0.075050876 0.026292089
0.043673508 0.075007863 0.02613139
-0.08250729 0.079016209 0.026136501
0.043715123 0.079081126 0.026244177
-0.084336512 0.082767718 0.025992716
-0.083604544 0.081696749 0.027746299
0.043756213 0.082645893 0.026435213
-0.085018732 0.085779265 0.026383299
0.043641143 0.085839808 0.026251238
-0.087582096 0.090942703 0.024733201
-0.086290032 0.089196473 0.026191844
0.04284779 0.089418992 0.026553975
-0.087723404 0.092995152 0.024818551
-0.086555339 0.092569359 0.026685124
0.0418626 0.094153404 0.027225699
0.042543322 0.092673451 0.026343619
-0.087666906 0.096387535 0.024662202
-0.086622961 0.096460253 0.026451923
0.041550439 0.096640244 0.026361018
0.042452302 0.0958497 0.0251568
-0.08598908 0.099842876 0.026419362
0.040231135 0.099963717 0.026426764
-0.085211262 0.1030638 0.025977816
-0.083815545 0.1039365 0.027663201
0.038248599 0.104643 0.027312299
0.039169751 0.103379 0.026319914
-0.084276244 0.1060845 0.02535045
-0.083190225 0.10678413 0.026787814
0.037578233 0.10695234 0.026319524
0.0388075 0.10554 0.025166901
-0.085022181 0.11122784 0.026454685
-0.083295599 0.10930701 0.02661125
0.034533974 0.11099775 0.027453601
0.036201485 0.1095835 0.025998026
-0.089024954 0.11438423 0.026069479
-0.086681098 0.11266626 0.026400652
0.033436444 0.11350381 0.026209293
-0.09190768 0.11757411 0.02603035
-0.090571001 0.11601301 0.02683845
0.029973768 0.11744939 0.026459608
0.032223001 0.115707 0.0251696
-0.093243249 0.1208025 0.026295898
-0.046494041 0.1219454 0.027191261
-0.044039983 0.121411 0.026845139
-0.039909299 0.12217433 0.027449399
-0.03574295 0.122037 0.0274579
-0.033302713 0.12170614 0.026654942
-0.030237447 0.1211341 0.026198899
-0.0265703 0.12151001 0.026322344
-0.023563733 0.12209401 0.0274601
0.024190599 0.121901 0.027161101
0.026077757 0.12078182 0.026313126
0.028434549 0.1195625 0.025171749
-0.093562223 0.124194 0.0262818
-0.046241384 0.12430215 0.025943244
-0.043629531 0.12316433 0.024991801
-0.039745852 0.12339601 0.025625926
-0.036746614 0.12330471 0.025804687
-0.034192048 0.123182 0.025030799
-0.022718379 0.12314381 0.025608381
-0.019022062 0.12432601 0.026211577
-0.015911667 0.12555002 0.02664
