ply
format ascii 1.0
comment PCL generated
element vertex 1353
property float x
property float y
property float z
element camera 0
property float view_px
property float view_py
property float view_pz
property float x_axisx
property float x_axisy
property float x_axisz
property float y_axisx
property float y_axisy
property float y_axisz
property float z_axisx
property float z_axisy
property float z_axisz
property float focal
property float scalex
property float scaley
property float centerx
property float centery
property int viewportx
property int viewporty
property float k1
property float k2
end_header
-0.11974994 0.061153732 0.42236719
-0.11255695 0.096920989 0.44542441
-0.04038268 0.094319895 0.44407639
-0.092438675 0.1438437 0.3928071
-0.022320282 0.10262961 0.44468981
-0.01786929 0.11316056 0.43540311
-0.017100472 0.11351256 0.43487251
-0.089092068 0.15165392 0.38757241
-0.085389487 0.15320706 0.38458091
-0.09323094 0.12447301 0.40203306
-0.095037997 0.13483851 0.40017202
-0.097713321 0.12740593 0.40654483
-0.096881568 0.12775911 0.40609881
-0.094586149 0.12869908 0.40439418
-0.093863226 0.12897688 0.40374726
-0.10002791 0.11688209 0.40805501
-0.10065092 0.11662728 0.40883601
-0.10125356 0.11637658 0.40962371
-0.10591198 0.10720038 0.4318926
-0.10521509 0.10748796 0.4312222
-0.10286158 0.10841627 0.42782861
-0.10243232 0.10858433 0.42666239
-0.0039004658 0.10178769 0.43721139
-0.1117569 0.098701708 0.44222131
-0.11176483 0.095719673 0.44583979
-0.10841911 0.059205338 0.38846961
-0.11235586 0.095477037 0.44669691
-0.12687856 0.12018524 0.35706729
-0.001587747 0.11066637 0.42017689
-0.097052604 0.10320023 0.429178
-0.097566493 0.10300469 0.4301542
-0.10740394 0.10812698 0.43216321
-0.092302419 0.13599652 0.39919579
-0.11878785 0.098960802 0.4488574
-0.079034694 0.14476858 0.39015242
-0.077220663 0.15979889 0.37454939
-0.023228064 0.11375834 0.4356074
-0.0037543809 0.10479652 0.38920471
-0.080460712 0.13786539 0.39496806
-0.11562876 0.10944802 0.43954509
-0.0913224 0.12848583 0.40157065
-0.10919458 0.098169774 0.44008881
-0.10429753 0.097218372 0.43905079
0.0020963654 0.10458229 0.42616171
0.0035378695 0.10528319 0.42115569
-0.10484196 0.10306074 0.43453211
-0.090008453 0.093809046 0.4280085
-0.026115019 0.11981347 0.43158481
-0.010819377 0.10746271 0.43640181
-0.1111977 0.095935099 0.44495419
0.0083639789 0.098261356 0.4171699
-0.11967318 0.098599508 0.44924989
-0.020560203 0.10197319 0.4449293
-0.091182023 0.088773645 0.432477
-0.11800323 0.099311784 0.44834441
0.001371231 0.10893925 0.4141624
-0.086178489 0.13857208 0.39825726
-0.12148292 0.12965488 0.35641509
-0.1149431 0.092944138 0.45064259
-0.11438962 0.11227329 0.38741851
-0.11755377 0.12279321 0.37441081
-0.019828567 0.074722879 0.4552854
-0.019005224 0.075085133 0.4548499
-0.018025657 0.075530931 0.45462841
-0.016976759 0.07601735 0.45456871
-0.016096238 0.076405674 0.45422739
-0.015219313 0.076791964 0.45385981
-0.014301951 0.077203445 0.45354161
-0.01346645 0.077561967 0.4531129
-0.012591325 0.077952601 0.4527356
-0.011817697 0.078270771 0.45219159
-0.011109487 0.07856109 0.45153239
-0.010371973 0.07887578 0.45092881
-0.0096060187 0.079194449 0.45036769
-0.0088410079 0.079515658 0.44981301
-0.0080321888 0.079865947 0.44931951
-0.0072397008 0.080187716 0.4488301
-0.0064745098 0.080509543 0.4482443
-0.0058072447 0.080767527 0.4475089
-0.0052330196 0.080987513 0.4466356
-0.0045633842 0.081244215 0.44590929
-0.0038187711 0.081561632 0.44533291
-0.0030709656 0.081879176 0.44475809
-0.0022889152 0.082226925 0.44423631
-0.0015064937 0.08255209 0.44370079
-0.00071203377 0.082899675 0.44319931
2.7185995e-05 0.08319483 0.44258809
0.00073210394 0.083482385 0.4419257
0.0013677047 0.083735801 0.4411622
0.0019910228 0.083957732 0.4403387
0.0026664934 0.084243469 0.43965641
0.0033748478 0.084530823 0.4390018
0.0040352819 0.084788583 0.43825841
0.004661887 0.085036546 0.4374896
0.0052571595 0.085258767 0.43664339
0.0058403541 0.08547879 0.43579009
0.0063900156 0.085670531 0.4348633
0.0069576781 0.085872658 0.43394661
0.0075204805 0.08607135 0.43302462
0.0080963923 0.086285442 0.43216461
0.0086290203 0.086474679 0.43122289
0.0091128582 0.086636662 0.43024471
0.0096086292 0.08677534 0.42913559
0.010136411 0.086949356 0.42817351
0.010660715 0.087121829 0.4272109
0.011149419 0.087270252 0.42616048
0.011612775 0.087406442 0.42509899
0.012041418 0.087514058 0.42394459
0.012477581 0.087639846 0.42287111
0.012877414 0.087721907 0.4216249
0.013250986 0.087802827 0.4203743
0.013537225 0.087828301 0.4190037
0.0026062625 0.10636763 0.40118521
0.00284416 0.1064889 0.40218055
0.0023722991 0.10624939 0.40019214
0.0017921908 0.10596051 0.39819762
-0.10460642 0.086515456 0.4469254
-0.092199348 0.10049453 0.42535079
-0.07415311 0.15300354 0.38019529
-0.076407015 0.14903383 0.38548189
-0.021503821 0.10298836 0.44423211
-0.0050937561 0.10976832 0.4294506
-0.016331686 0.11385157 0.4343318
-0.09115012 0.15079494 0.3896181
-0.096984021 0.14035034 0.39883277
-0.098646834 0.13969299 0.40156764
-0.10356364 0.12491662 0.40962756
-0.10279882 0.12523884 0.40906939
-0.097720362 0.11784007 0.40463418
-0.098313786 0.11761051 0.40549558
0.0031425611 0.10030366 0.39122334
-0.099442802 0.11710063 0.40718591
-0.10823095 0.10621927 0.43351549
-0.10741289 0.1065841 0.43305421
-0.10666085 0.1068956 0.43247369
-0.10784537 0.10023748 0.4377403
-0.10941908 0.099606209 0.43880901
-0.11013536 0.09933982 0.4394224
-0.11073782 0.099082693 0.44026551
-0.11126706 0.098898105 0.441174
-0.0088112755 0.1165683 0.40216795
-0.054797117 0.090431757 0.37725139
-0.12007339 0.12675451 0.34641451
0.0061678519 0.10343679 0.40617085
-0.0013311128 0.1060056 0.39317918
-0.0014018227 0.11073256 0.41916808
-0.11918398 0.054152694 0.4164184
-0.10810066 0.10784055 0.4328315
-0.10413602 0.10946003 0.4284164
-0.074903935 0.15584338 0.37721509
-0.078036077 0.14510645 0.3899135
-0.087349422 0.15559477 0.38507429
0.0029300679 0.10145402 0.4284783
-0.099792995 0.13601218 0.40326214
-0.099176086 0.1299368 0.40424082
-0.11047719 0.11158079 0.4352791
-0.10509744 0.087825246 0.4469409
-0.10605912 0.099521555 0.43798101
-0.10976101 0.094987787 0.44460359
-0.013863894 0.10763797 0.43768549
-0.13403417 0.11878859 0.37503579
-0.038753271 0.1172488 0.4343752
-0.095197268 0.091799393 0.43588051
-0.090659067 0.093472444 0.428756
-0.02540792 0.12011719 0.43092811
-0.024340374 0.11908948 0.43179771
-0.099859081 0.1201321 0.40834501
0.0083353799 0.098245725 0.41816741
-0.079817735 0.13973475 0.39511552
-0.017221412 0.11492478 0.43373981
-0.0024487623 0.099529423 0.4378885
-0.11298607 0.095272265 0.44744629
-0.092595257 0.094331913 0.43193641
0.0074980068 0.099383049 0.40017205
-0.10042841 0.097319737 0.43723911
-0.11719034 0.098112576 0.44875491
-0.1008647 0.10167316 0.43380469
0.0047167349 0.10427497 0.40218273
-0.020406947 0.075928189 0.4551886
-0.019582596 0.076290101 0.45475879
-0.018606002 0.076731317 0.4545179
-0.01750936 0.077245414 0.45452249
-0.016580736 0.077663943 0.454252
-0.015648976 0.078085609 0.45398799
-0.014813649 0.078447416 0.4535802
-0.013897584 0.078860201 0.45325711
-0.01311103 0.079190552 0.45274669
-0.012321376 0.079530403 0.4522129
-0.011633491 0.079802893 0.45153031
-0.010844739 0.080142044 0.45100921
-0.010065839 0.080466308 0.45047641
-0.0092658894 0.080811612 0.44997841
-0.0084862644 0.081135958 0.44944459
-0.0076650218 0.081489436 0.44897771
-0.0069118482 0.081808127 0.44839531
-0.0062326943 0.082088895 0.44770339
-0.0056146686 0.082318373 0.4468843
-0.0049470696 0.082577907 0.44615379
-0.004205063 0.082892723 0.44556919
-0.0034869069 0.083183587 0.44493049
-0.0027265584 0.083504818 0.4443709
-0.0019440283 0.083845407 0.44384471
-0.001164019 0.084171958 0.44330999
-0.00041742562 0.084485106 0.44272619
0.0002853304 0.084756717 0.44203791
0.00096049206 0.085035615 0.4413414
0.0016039158 0.085288703 0.44058409
0.0022427845 0.085540779 0.4398247
0.0029005904 0.085797556 0.4390786
0.0035048751 0.086025454 0.43824449
0.0041158805 0.086261436 0.43746001
0.0047161076 0.086488418 0.4366194
0.0053204568 0.086715907 0.43578529
0.0059363851 0.086945482 0.43495759
0.0065211598 0.087165087 0.43410581
0.0070504425 0.087339401 0.4331058
0.0076057776 0.087547243 0.43223631
0.0081414832 0.087736882 0.43129599
0.0086084288 0.087884516 0.4302476
0.0090905149 0.088027485 0.4291974
0.009564817 0.088182703 0.4282065
0.010152577 0.088383086 0.42727941
0.010621536 0.088521153 0.4262206
0.01110814 0.088668376 0.42517009
0.011593515 0.088815413 0.4241159
0.012027105 0.088927038 0.42296669
0.012424703 0.089017369 0.42172089
0.012763836 0.089077421 0.42045489
0.013040263 0.089104898 0.41909051
0.0023204556 0.092017516 0.3842257
0.0086361161 0.098393776 0.41316259
0.013434201 0.088901468 0.41412899
-0.1191375 0.068497084 0.40233606
-0.088325113 0.13614377 0.40108833
-0.0027609807 0.11318079 0.41116169
-0.08290568 0.16385727 0.37623569
-0.003007977 0.10771307 0.4293761
-0.0024576909 0.10790095 0.42849439
-0.0056992131 0.10952078 0.43028849
-0.015585654 0.11413786 0.43373209
-0.092905641 0.15009592 0.39220616
-0.095945939 0.14077926 0.396956
-0.013142026 0.10795646 0.43707469
-0.0017264588 0.11214267 0.412164
-0.014929025 0.11442284 0.43299931
-0.097382888 0.11811841 0.40358642
-0.11101916 0.10507517 0.4361839
-0.11035736 0.10533956 0.43544331
-0.10974405 0.10559036 0.43465289
-0.10909056 0.10585888 0.4339321
-0.10535823 0.10133156 0.4364008
-0.10618152 0.10098512 0.4368692
-0.10701501 0.10059875 0.4372893
-0.11700791 0.11963574 0.38441381
-0.13483581 0.081544802 0.42626911
-0.090112582 0.14480396 0.39116964
0.0082293171 0.09976314 0.40717608
-0.11976455 0.066821583 0.40438107
-0.10432126 0.11677063 0.41641659
0.0040539815 0.10551256 0.40318316
-0.037164472 0.10168184 0.44188821
-0.0007685509 0.1062804 0.39418662
-0.12458824 0.10471402 0.39311755
0.0033017653 0.10203855 0.42717049
-0.11313169 0.10582156 0.43909249
-0.089221857 0.14999172 0.38822621
-0.09093032 0.13184778 0.40223348
-0.078933671 0.15907744 0.37715089
-0.093513772 0.15304467 0.39303699
-0.020684144 0.10333438 0.443762
-0.099189058 0.13626234 0.4024545
-0.099989295 0.12958482 0.40470836
-0.11009102 0.11171152 0.43408331
0.0013672754 0.10091136 0.43142849
-0.10523486 0.099872716 0.4375172
-0.11031447 0.094793186 0.44549629
0.0087685706 0.096905157 0.4211635
-0.11241812 0.057836816 0.39343587
-0.037806485 0.11762474 0.4340691
-0.095888168 0.091515377 0.43655151
0.0058439863 0.10015213 0.42416739
0.0050873426 0.099777013 0.4261862
0.0055071441 0.099983588 0.42516729
-0.01237543 0.10828482 0.43652391
-0.11735965 0.093424961 0.45119601
-0.10407095 0.083654597 0.4460384
-0.0070020277 0.11586948 0.40416583
-0.10016257 0.080147296 0.43673021
-0.083447382 0.13827676 0.3982619
-0.096679151 0.13259575 0.40203017
-0.093139194 0.09412609 0.43283999
-0.10180472 0.082685046 0.43949321
-0.10473158 0.089431532 0.4447625
-0.10793369 0.080530591 0.4512836
-0.096273802 0.09747874 0.43408751
-0.11898235 0.1256045 0.36540899
-0.021042056 0.077104263 0.45501089
-0.020164611 0.077492177 0.45465049
-0.019243116 0.077901259 0.4543348
-0.018202033 0.078381196 0.4542326
-0.017217942 0.078835145 0.45406041
-0.016284887 0.079261787 0.45381159
-0.015402887 0.079656996 0.4534651
-0.014483548 0.080058478 0.4531399
-0.01364429 0.080425695 0.45271429
-0.012840034 0.080772363 0.4522219
-0.0120989 0.081074916 0.45161149
-0.011338949 0.081396841 0.4510479
-0.010563177 0.08172369 0.45051271
-0.0097797187 0.082052104 0.44999442
-0.0089479629 0.082408428 0.44954741
-0.0081224795 0.082764208 0.44908121
-0.007372167 0.083081707 0.44849399
-0.0066970252 0.083357789 0.44779241
-0.0060921381 0.083572738 0.44692811
-0.0054377448 0.083840109 0.4462139
-0.0047286116 0.08413212 0.4455649
-0.0039986102 0.084429406 0.444942
-0.0032247126 0.084762089 0.4444105
-0.0024669773 0.085079961 0.4438394
-0.0016851389 0.085408889 0.4433085
-0.00092332327 0.085728668 0.44274589
-0.0002040129 0.086020663 0.44210169
0.00050979317 0.086312108 0.4414506
0.0011659862 0.08658088 0.44073781
0.0017792787 0.086811863 0.4399156
0.0023865816 0.08703927 0.43908009
0.0029548516 0.087249331 0.4382118
0.0035268983 0.087455757 0.43730459
0.0041804472 0.087719426 0.43660051
0.0048365709 0.087978438 0.43585491
0.0054673026 0.088224545 0.43508911
0.0060291947 0.088426225 0.43417209
0.0065738019 0.088619985 0.43324089
0.0071309754 0.088815801 0.43231761
0.0076523684 0.089000277 0.43136871
0.0081349099 0.089154691 0.4303335
0.0085996753 0.089295574 0.4292753
0.0090592727 0.089430638 0.42820811
0.009617608 0.089618176 0.42726359
0.010141095 0.0897955 0.42630231
0.010596618 0.089917406 0.4251667
0.011087024 0.090066418 0.42411599
0.011520846 0.090193942 0.42303979
0.011914326 0.090280622 0.4217954
0.01224653 0.090344079 0.42052919
0.012496142 0.090346918 0.41907731
0.012605722 0.09026242 0.417326
0.012704254 0.090174533 0.41557691
-0.091500558 0.091709204 0.43193591
-0.033307113 0.11819498 0.4333941
-0.10148902 0.087628126 0.44095922
-0.09448082 0.13661604 0.39836702
-0.09861546 0.09040843 0.43932351
-0.1333409 0.090869687 0.4042424
-0.0064357449 0.10639931 0.43467399
-0.0044716578 0.10999894 0.42867181
-0.014250054 0.11467268 0.4323042
-0.095177084 0.14914641 0.39566025
-0.094713606 0.14129189 0.39538357
-0.044979312 0.09217453 0.44376689
-0.087736994 0.15061435 0.38703451
-0.088495739 0.15029681 0.38760239
-0.11260499 0.10447891 0.43901941
-0.1121114 0.10466281 0.43802959
-0.10248692 0.10254578 0.43386799
-0.10314021 0.10225353 0.43460411
-0.10383906 0.10196622 0.43527299
-0.10454205 0.10165989 0.43591911
-0.013645086 0.11492977 0.43147311
-0.098081082 0.12565166 0.40682012
-0.12106418 0.069330186 0.42335549
-0.0048450809 0.10421766 0.4355669
-0.093872599 0.14324 0.39408615
-0.11996903 0.056755606 0.41940439
-0.02026541 0.11791338 0.43131691
-0.021840533 0.11726853 0.43237361
-0.099778965 0.091462404 0.4401181
0.0041996809 0.10559877 0.40417269
-0.11979359 0.072440155 0.40021926
-0.0018927203 0.10573032 0.39217216
-0.13059889 0.10533836 0.39917293
-0.00026286964 0.10336392 0.39219713
-0.11366707 0.10561387 0.43999791
-0.0022884845 0.11187415 0.41816711
-0.091727823 0.1315023 0.40275896
-0.087734103 0.15864795 0.38450649
-0.092904672 0.15330562 0.39224699
-0.0866495 0.15588576 0.3844071
-0.091318935 0.13953307 0.39541918
-0.10570465 0.11193838 0.42953891
-0.10961097 0.11189412 0.43309441
-0.098899655 0.11737866 0.40643191
-0.1044145 0.1002082 0.43704021
-0.095553637 0.090077981 0.43617409
-0.098776542 0.087223336 0.43906119
-0.022413019 0.11558098 0.43419909
-0.036986101 0.11799701 0.43362799
-0.10179093 0.089062802 0.44136211
0.0074538379 0.10094493 0.41216031
-0.10052659 0.11984803 0.40904698
-0.099723801 0.034489293 0.41041979
-0.1125541 0.092415094 0.45001021
0.0025064044 0.095249705 0.38621429
-0.026495336 0.11672807 0.43464771
-0.10365716 0.083803266 0.44491699
-0.10327008 0.083882421 0.4436447
-0.10124699 0.082909569 0.43860331
0.0024003868 0.10126211 0.42949551
-0.0051061041 0.099888109 0.4398247
-0.10808591 0.082086802 0.45194811
-0.10894611 0.081690446 0.45233679
-0.093557 0.087748758 0.43398929
-0.014105394 0.10041742 0.4439168
-0.10688548 0.099159785 0.4384279
-0.021675983 0.078278452 0.4548353
-0.020810932 0.078667618 0.4544608
-0.019925464 0.079055496 0.45409909
-0.01895134 0.079493523 0.45387259
-0.017962877 0.079948418 0.45370409
-0.017032854 0.080377154 0.4534508
-0.016105231 0.080784775 0.4531419
-0.015180509 0.081191286 0.45283449
-0.014298637 0.081592292 0.45249861
-0.013478617 0.081945591 0.4520326
-0.01272092 0.082260415 0.45145601
-0.011865854 0.082456462 0.45094731
-0.011114339 0.082944825 0.45046729
-0.010258229 0.083320223 0.45006439
-0.009424 0.083682328 0.44963381
-0.0086381463 0.084012277 0.44909659
-0.0079123946 0.084312245 0.44846269
-0.0072439848 0.084578179 0.447736
-0.0066026589 0.084828235 0.4469671
-0.0059631988 0.085076004 0.44620529
-0.005292776 0.085344397 0.4454779
-0.0045943712 0.085628599 0.44481531
-0.0038278569 0.085954539 0.44426629
-0.0030480733 0.086281113 0.44373739
-0.0022363532 0.086631194 0.44325659
-0.001472735 0.086952366 0.442698
-0.00071846368 0.087268151 0.44212621
-1.9269391e-05 0.087548345 0.4414362
0.00064439431 0.087816857 0.4407312
0.0012594734 0.088049009 0.43990761
0.0018264421 0.088257775 0.4390375
0.0023640315 0.088443644 0.43805411
0.0029816288 0.088682793 0.4372758
0.0036517298 0.088953003 0.4365828
0.0043139108 0.089213863 0.43584701
0.0049481499 0.089463256 0.43508121
0.0055321506 0.08968395 0.4342345
0.0060664951 0.089778095 0.43341389
0.0066620149 0.090086468 0.4323988
0.007172633 0.090265602 0.43144861
0.0076297722 0.090413399 0.43040121
0.0081178127 0.090549305 0.42928559
0.0086222272 0.090718843 0.4283126
0.0091513004 0.090895236 0.42735401
0.009658373 0.091078214 0.42623419
0.010073001 0.091237187 0.42520669
0.010502514 0.091404378 0.4241291
0.010990138 0.091434151 0.42302829
0.01135967 0.091511235 0.4216904
0.011678726 0.091560699 0.42042229
0.011889268 0.091546811 0.4189631
-0.035401974 0.10148104 0.37969351
-0.094579421 0.1461879 0.39481449
-0.0043184361 0.1044054 0.43462431
-0.0037824709 0.10459807 0.433685
-0.003162279 0.10485864 0.43286511
-0.0025354694 0.10509435 0.43209061
-0.086392604 0.14005612 0.39527535
-0.0089522507 0.10398046 0.43873101
-0.0070796241 0.10614235 0.43541801
-0.0039299736 0.11020708 0.4277283
-0.013050224 0.11517074 0.43062609
-0.094579026 0.14939953 0.39485496
-0.091656841 0.14258724 0.39315528
-0.089794762 0.15618274 0.38741469
-0.073059835 0.15043543 0.38194481
-0.11470408 0.10369604 0.44279191
-0.11527763 0.10346605 0.4437201
-0.10105531 0.10309548 0.432587
-0.1017487 0.10281801 0.43326199
-0.11998221 0.12686048 0.3574068
-0.012464207 0.11539833 0.42976779
-0.011870118 0.11564116 0.42892271
-0.011298592 0.1158465 0.4280456
-0.019866826 0.10367617 0.44328871
-0.1062334 0.1117356 0.43050021
-0.01224229 0.11404309 0.4311032
-0.087282836 0.13967113 0.39562702
-0.10595905 0.081369072 0.44914049
-0.10122993 0.081274644 0.4376933
-0.10547724 0.079946145 0.4472279
-0.021081118 0.11758417 0.43179941
-0.10485224 0.081804805 0.4473772
-0.095366843 0.1362512 0.39874092
-0.11705408 0.11955383 0.36639881
0.0085196234 0.096760899 0.40018618
0.0015345576 0.10424244 0.39521173
-0.11478481 0.10519094 0.44177651
-0.0021771409 0.11192676 0.4171662
-0.094091415 0.13051893 0.40432745
-0.07810165 0.14205401 0.39342642
-0.13315065 0.077711917 0.4112823
-0.085916273 0.15618624 0.3838031
-0.080815516 0.14401145 0.39086425
-0.025662005 0.11562717 0.43514991
-0.00056779973 0.11108993 0.41215649
-0.10355605 0.10967319 0.42760539
-0.098158069 0.10275315 0.43100598
-0.10177826 0.096758448 0.43865019
-0.0010687514 0.11089218 0.41616419
-0.097033873 0.14356282 0.39884642
0.0050738291 0.10128579 0.39721245
-0.10254395 0.088740066 0.4419471
-0.11846546 0.075331502 0.44746199
-0.096778348 0.10752109 0.4159973
-0.1037625 0.11856288 0.412837
-0.096547805 0.10755272 0.41459411
-0.11325494 0.092123717 0.45067719
-0.10368169 0.11704528 0.4138388
-0.096588202 0.1262408 0.40561765
-0.015312498 0.1055648 0.43987089
-0.10283726 0.084033556 0.44254541
-0.10239769 0.084147438 0.44136801
-0.073493518 0.15153842 0.3812401
-0.097784206 0.08607357 0.43796751
-0.097007066 0.086382478 0.43742841
-0.1040122 0.082156003 0.4452756
-0.024882697 0.078328617 0.4558396
-0.023964077 0.078743756 0.4555296
-0.023094451 0.079125613 0.45514381
-0.022208814 0.07951162 0.45480439
-0.021381587 0.079869956 0.4543646
-0.020565134 0.080221675 0.45388949
-0.019697567 0.080601819 0.4535026
-0.018764907 0.081026018 0.4532361
-0.017837588 0.081453964 0.4529703
-0.016907752 0.081864342 0.4526782
-0.015978791 0.08228571 0.45240101
-0.015052549 0.08269091 0.4520978
-0.01423336 0.08304961 0.45164251
-0.013414132 0.083399333 0.45116839
-0.012539589 0.083787449 0.45080361
-0.011653064 0.084183231 0.45045781
-0.01080033 0.084544569 0.45001909
-0.010021286 0.08488024 0.44949859
-0.009249879 0.085203774 0.44894141
-0.0085242279 0.085498504 0.4483141
-0.0078647193 0.085760318 0.44758031
-0.0071652769 0.086044624 0.44691351
-0.0064730616 0.08631999 0.44620919
-0.0057998816 0.086592443 0.4455159
-0.005195972 0.086820729 0.4446831
-0.0044792914 0.087115414 0.44404319
-0.0036806241 0.087455973 0.4435477
-0.0028687848 0.087805241 0.44307271
-0.0020543174 0.088155486 0.44259331
-0.0013133594 0.088463157 0.44198921
-0.00060371304 0.088751577 0.44132999
6.8083027e-05 0.089021623 0.44063339
0.00068129279 0.089253321 0.43980551
0.0012323512 0.08944954 0.4388786
0.0018046406 0.089663751 0.43801549
0.0024396121 0.08991085 0.43725231
0.0031110412 0.090183347 0.43655869
0.0037482707 0.090425 0.4357563
0.004410957 0.090691693 0.43505991
0.0050434768 0.090943411 0.43429971
0.0056288484 0.091153733 0.43340379
0.006167829 0.091345921 0.4324674
0.0066549089 0.091505572 0.43144161
0.0071380031 0.09166465 0.43040931
0.0076397513 0.091832541 0.4294354
0.0081818476 0.092003614 0.42841691
0.0087003903 0.092178248 0.42745179
0.0091957832 0.092385508 0.4262681
-0.014155074 0.09612745 0.44674769
0.0022667719 0.10261896 0.42832521
-0.13757834 0.13550472 0.34705371
-0.022296291 0.093963534 0.44870329
-0.092797928 0.0880621 0.43341431
-0.12913729 0.07634902 0.40430245
-0.014099246 0.11333128 0.43350229
-0.098431773 0.13337864 0.40183362
-0.10415145 0.080440104 0.44405639
-0.095386997 0.14743803 0.39615774
-0.011013533 0.11452933 0.4294894
-0.090016939 0.095289491 0.4270727
-0.023680421 0.11939857 0.43107399
-0.0083423695 0.10423536 0.43791711
-0.0077551077 0.10588853 0.43610671
0.0033984985 0.10160042 0.4274869
-0.010721697 0.11606056 0.42718071
-0.022400582 0.11413465 0.43517461
-0.089261755 0.1435696 0.39161673
-0.098758444 0.12217046 0.40744382
-0.10723843 0.080883518 0.4506532
-0.11589695 0.10322792 0.4445155
-0.10040782 0.10337558 0.43183491
-0.0024185053 0.10227045 0.38911781
0.0037523056 0.10220255 0.39620283
0.0094257267 0.097224653 0.40717825
-0.0031519178 0.10066596 0.43758959
-0.0037668124 0.10041872 0.4384062
-0.10045794 0.1246509 0.4083454
-0.024883159 0.11599416 0.43464911
-0.11285701 0.054810274 0.39443544
-0.090356849 0.15594991 0.38829669
-0.10072143 0.13402243 0.40442786
-0.099708878 0.081914425 0.43656999
-0.10054225 0.081563823 0.4370124
-0.10600322 0.079714201 0.44812369
-0.017995715 0.10024048 0.44565529
-0.094528981 0.14294215 0.39477929
-0.023257913 0.1166403 0.4336476
-0.12008607 0.12680446 0.35540411
-0.14023434 0.10297083 0.41216841
-0.11049757 0.11466042 0.43347219
-0.11531715 0.10498666 0.44273871
-0.11709666 0.11037482 0.43986669
-0.093276627 0.13086185 0.40383264
-0.097802959 0.13841245 0.40018517
-0.11991611 0.1250651 0.34640911
-0.085225984 0.15648298 0.3831121
-0.079926006 0.14439507 0.39051464
-0.011626258 0.10858756 0.43593979
-0.082646899 0.13861373 0.39776024
-0.019822495 0.11524042 0.43395621
-0.021471266 0.11450551 0.4348506
-0.11112996 0.10348579 0.43688399
-0.00065361132 0.11106845 0.41315871
-0.093699843 0.14491892 0.39347568
0.0060427957 0.10179637 0.4001798
-0.10322016 0.088477291 0.4426924
0.0081115142 0.099699736 0.40517807
-0.018432133 0.11004284 0.43816379
-0.10254353 0.094912037 0.44011241
-0.10172542 0.095257409 0.4396404
-0.10095864 0.095585845 0.43909451
-0.10026333 0.09586627 0.4384169
-0.094592869 0.15563704 0.3849889
-0.018170789 0.10297917 0.44341141
-0.079101555 0.15422697 0.38123369
-0.10424448 0.086629659 0.4457283
-0.078850299 0.13873811 0.39245036
-0.078737602 0.15118359 0.3835361
-0.017607886 0.11042539 0.43774769
-0.026125215 0.079277016 0.45646131
-0.025246358 0.079661071 0.45610619
-0.024322202 0.080076568 0.45581219
-0.02345382 0.080460064 0.45542771
-0.022631167 0.080811106 0.45496961
-0.021807764 0.081165381 0.45451319
-0.021050163 0.081476256 0.45394319
-0.020324461 0.081781842 0.453329
-0.01948682 0.082153477 0.4528968
-0.018591553 0.082541734 0.45254532
-0.01766493 0.082955427 0.4522607
-0.016780583 0.083366655 0.45193449
-0.015859442 0.083768226 0.4516215
-0.016686752 0.11079719 0.43741411
-0.014109934 0.084539011 0.4508805
-0.013182431 0.084951878 0.45058799
-0.012297953 0.085355476 0.45025459
-0.011430642 0.08572761 0.44985089
-0.010617169 0.086070843 0.44936109
-0.0098924395 0.086374059 0.44874439
-0.0091710268 0.086670391 0.44810829
-0.0084839575 0.086941458 0.4474102
-0.0076957871 0.087271817 0.4468767
-0.0069422675 0.087588377 0.44629622
-0.0062991199 0.087842651 0.44553599
-0.0057159276 0.088059545 0.44467941
-0.0051707053 0.088253126 0.4437755
-0.0043745576 0.088580959 0.4432289
-0.003489435 0.088979073 0.4428747
-0.0026386513 0.089361578 0.44248849
-0.0018598401 0.089685798 0.44195259
-0.0011537791 0.089974247 0.44129151
-0.00051614118 0.09022484 0.4405264
0.00013017365 0.090476967 0.4397721
0.00069583603 0.090681829 0.43885979
0.0012972873 0.090915263 0.43806651
0.0019064178 0.09113694 0.43719089
0.0025642086 0.091402911 0.43648899
0.0032231305 0.09166275 0.43574759
0.003881423 0.091926984 0.4350467
0.0045067845 0.092164367 0.43423161
0.0050791316 0.092378162 0.43337339
0.0056323512 0.09257701 0.43244901
0.0061407164 0.092748508 0.431438
0.0066093081 0.092898443 0.43039659
0.0071096313 0.093056433 0.42935529
0.0076473197 0.093249388 0.42846709
0.0081823198 0.093432896 0.42751321
0.0086530643 0.093647152 0.4263179
-0.015027694 0.09575063 0.44714361
0.002765225 0.10279036 0.42728579
0.0095158974 0.097269587 0.4081749
-0.021481542 0.094293751 0.4482094
-0.0052456236 0.11111253 0.42826208
-0.10213351 0.10719818 0.42807761
-0.013469385 0.11356512 0.43272451
-0.015606591 0.09839467 0.44606981
-0.014790985 0.098741375 0.44558701
-0.014032334 0.09905573 0.44501531
-0.0017502182 0.10397364 0.4325586
-0.0065642931 0.097864226 0.44201139
-0.10165139 0.10735673 0.42707491
-0.0076166708 0.10449861 0.43730009
-0.0084554767 0.10560384 0.4367685
-0.11663342 0.07555782 0.4481937
-0.0026466423 0.11008597 0.39724293
-0.013334655 0.096481353 0.44627649
-0.084535174 0.14873995 0.38673601
-0.087607399 0.1442581 0.39068985
-0.13427262 0.078801498 0.4252761
-0.010883299 0.10888232 0.43535089
-0.11657647 0.10296268 0.4452157
-0.099770628 0.10363303 0.43106681
-0.11846647 0.12240757 0.3814154
-0.089325853 0.14833912 0.3889226
-0.10107515 0.097054005 0.4379943
-0.09014973 0.096774727 0.42590579
-0.089565404 0.096981049 0.42508441
0.0057058423 0.10319649 0.40318224
-0.015922042 0.11113559 0.43688729
-0.015212133 0.1114448 0.43625829
-0.010178893 0.10917084 0.43469709
-0.088368624 0.15838513 0.38527629
-0.10662211 0.087269478 0.44981149
-0.11397234 0.090281971 0.45219851
-0.01452218 0.11171544 0.4355782
-0.10423604 0.076776884 0.43817449
-0.08484491 0.14697939 0.38080919
-0.11206017 0.070991322 0.39240119
-0.10364679 0.089829996 0.44283959
-0.11654382 0.11805934 0.36839321
0.0048341844 0.094874233 0.38922119
-0.10366181 0.12331948 0.41037381
-0.11422232 0.10539903 0.44094279
-0.013875954 0.1119777 0.43482959
-0.092495494 0.13118649 0.40331286
-0.098317854 0.13820784 0.40115508
-0.076270707 0.15221731 0.38215369
-0.084492005 0.15678269 0.38250899
-0.089998208 0.15449978 0.3879692
-0.013228566 0.11224369 0.43408051
-0.020832999 0.1162506 0.43316001
-0.012605567 0.11246927 0.4332945
-0.020646002 0.1148809 0.4344109
-0.10120035 0.10606503 0.4287121
-0.012048349 0.11270549 0.43237811
-0.087869242 0.163387 0.38350779
-0.087969162 0.16176532 0.38421121
-0.10374035 0.088288873 0.4436785
-0.089833945 0.15938878 0.38742441
-0.086498879 0.13090701 0.39542988
-0.011432997 0.11292574 0.4315863
-0.010815235 0.11319245 0.43076441
-0.085800216 0.16105312 0.3813937
-0.099634193 0.096113883 0.4376418
-0.10519069 0.084788397 0.4486106
-0.10569487 0.084612034 0.44959161
-0.10473847 0.084962726 0.44760919
-0.10428938 0.085110866 0.44653261
-0.10394149 0.085221402 0.4453283
-0.10307577 0.085492328 0.44305649
-0.010169802 0.11345115 0.43000719
-0.0095364144 0.11369292 0.4292348
-0.025626555 0.080987118 0.4563131
-0.024734097 0.081375733 0.4559983
-0.023863737 0.081757672 0.4556174
-0.023050107 0.082108654 0.45514011
-0.022236247 0.082461141 0.45466831
-0.021497721 0.082758494 0.45406961
-0.020752607 0.083074167 0.45347571
-0.020000052 0.083385989 0.45289049
-0.019247662 0.083699264 0.45231161
-0.018398855 0.084081054 0.4519158
-0.017520582 0.084475584 0.4515574
-0.016660733 0.084847443 0.45115301
-0.0089532929 0.1139139 0.4283742
-0.0083781984 0.11423004 0.4274101
-0.013931623 0.086067066 0.45022169
-0.012999746 0.086484015 0.44994241
-0.01212401 0.086868733 0.4495666
-0.011349841 0.087202065 0.449031
-0.010630679 0.087491289 0.44839239
-0.0098525528 0.087821074 0.44785029
-0.0090435054 0.088180222 0.44740391
-0.00818842 0.088533007 0.4469361
-0.0074407146 0.088843472 0.4463473
-0.0068232003 0.089077063 0.44552499
-0.0062482329 0.089292385 0.4446615
-0.0057080514 0.089485064 0.443728
-0.0049359603 0.08981061 0.44318989
-0.0040625245 0.090191998 0.44281471
-0.0031507746 0.090600826 0.4425067
-0.0023440635 0.090946019 0.44201699
-0.0016255615 0.091237359 0.441374
-0.0010021199 0.091473617 0.44055539
-0.00038798465 0.091714583 0.43976972
0.00023438876 0.091948457 0.43894631
0.00080925995 0.092165574 0.438086
0.0014002633 0.092389487 0.43723941
0.0020334821 0.092637166 0.43647379
0.0026815245 0.09289217 0.4357219
0.0033107828 0.093135826 0.43495101
0.0039216136 0.093367517 0.43412471
0.0045185769 0.093592703 0.4332858
0.0050854324 0.09380044 0.43242341
0.0056173839 0.093987122 0.4314273
0.0060894191 0.094142593 0.43044901
0.0065549398 0.094282173 0.42932919
0.0071171736 0.094484858 0.4284544
0.0076499861 0.094666585 0.42749801
0.0081115402 0.094805814 0.42643788
-0.078280844 0.14347674 0.39222082
-0.11340328 0.099614114 0.4440071
-0.0022411884 0.10659565 0.42978239
0.0072548091 0.10083696 0.40317619
-0.11134235 0.065869115 0.4342449
-0.12017701 0.056675516 0.41840321
-0.091831557 0.090009116 0.4322871
-0.10282961 0.087113969 0.44247171
-0.1005724 0.076878645 0.43783179
-0.095503516 0.1314299 0.40463176
-0.0030347672 0.10346949 0.43406579
-0.043191385 0.096768431 0.37760469
-0.097510986 0.093936659 0.43751091
-0.0069405022 0.10480174 0.4365924
-0.015769327 0.10259383 0.44290251
-0.01503915 0.10284 0.44225049
-0.0067822421 0.10344785 0.43781459
0.0071118283 0.10076116 0.40218472
-0.010308802 0.097731672 0.44397399
-0.0078093456 0.11437259 0.42657691
-0.086721294 0.14460132 0.39029276
-0.13589579 0.095819779 0.41220111
-0.0095639974 0.10943636 0.43388501
-0.11724954 0.1026709 0.445939
0.0077863508 0.099529654 0.40217811
-0.12074274 0.13159373 0.34141541
-0.087797835 0.14897855 0.38779441
-0.093821518 0.095384791 0.432677
-0.093265407 0.095590241 0.4317323
-0.090077981 0.14324556 0.39210981
-0.10277142 0.099384256 0.43702269
-0.086949803 0.15092957 0.38649961
-0.093796246 0.03287293 0.41827741
-0.0089367256 0.10966913 0.43310589
-0.1078633 0.086782426 0.45138311
-0.10720464 0.087045506 0.45067331
-0.075218037 0.15112284 0.38295469
0.0057920115 0.10166283 0.39919108
-0.088438824 0.14390072 0.39113796
-0.10469592 0.076729275 0.43923649
-0.033007387 0.10091968 0.37939471
-0.094270535 0.14789723 0.39438617
-0.010302418 0.099162102 0.4430179
-0.10065354 0.070746846 0.38413391
0.0079101687 0.096449576 0.39720342
-0.08853209 0.14544237 0.39010784
-0.11259036 0.10601982 0.43814129
-0.094991475 0.094934814 0.4344067
-0.090148658 0.13216616 0.40170747
-0.09890645 0.13797918 0.40202421
-0.089550823 0.16266231 0.38612139
-0.083781146 0.15708254 0.381859
-0.081772231 0.14360327 0.39111668
-0.1070056 0.077713296 0.4474107
-0.0073353699 0.10180372 0.43967891
0.0073283366 0.099293821 0.39918813
0.0015737761 0.10377225 0.4280268
-0.11286804 0.099809848 0.44310269
-0.094411664 0.096691415 0.43264011
-0.095400974 0.14422078 0.39609742
-0.0017069344 0.1067901 0.42883101
-0.081983849 0.16261117 0.37683111
-0.095269971 0.1235927 0.4040848
-0.080724351 0.15513076 0.38132879
-0.0037487186 0.10885882 0.4289909
-0.1011307 0.13065442 0.40551466
-0.095125645 0.14595625 0.39570695
-0.10222255 0.087337278 0.44160661
-0.1001997 0.094379447 0.43943229
-0.090663753 0.14939447 0.38949111
-0.085443892 0.13576774 0.39945978
-0.093660899 0.13227431 0.40410155
-0.10337429 0.12815239 0.40818307
-0.00010408298 0.10041815 0.4344469
-0.0042805877 0.11087689 0.39717117
-0.09148623 0.15548427 0.39005318
-0.009393895 0.10807373 0.43512359
-0.025253765 0.082614779 0.45600921
-0.024389336 0.082994699 0.4556146
-0.023538185 0.083366424 0.45518291
-0.022742802 0.083702371 0.45469919
-0.021921217 0.084058158 0.4542349
-0.021167142 0.084373102 0.4536553
-0.020445 0.084668979 0.45302472
-0.019765224 0.084947199 0.45232791
-0.018977892 0.085280895 0.4518047
-0.018166464 0.085631937 0.45132941
-0.017401319 0.085960664 0.450782
0.0015519274 0.10900003 0.40616795
-0.018555053 0.11146507 0.43707061
-0.10557768 0.087650143 0.44793391
-0.013756867 0.087582283 0.4495337
-0.012879729 0.087969624 0.44916639
-0.012064031 0.088317677 0.44868881
-0.011240369 0.088710263 0.44833219
-0.010335892 0.089069754 0.44789991
-0.0095160836 0.089429572 0.44743761
-0.0087188436 0.08976391 0.44692019
-0.0080266697 0.090042509 0.4462384
-0.0074279997 0.090269588 0.44539669
-0.0068685771 0.09047436 0.44451541
-0.0062406166 0.090716176 0.44371349
-0.0054549044 0.091045424 0.4431971
-0.0045297407 0.091456883 0.44291359
-0.0035730563 0.09189678 0.4426688
-0.0027412332 0.09225215 0.44222149
-0.0020155888 0.092559434 0.44160321
-0.0014006578 0.092790112 0.44078639
-0.00081329787 0.093012623 0.43993619
-0.00022542071 0.093233623 0.43908599
0.000334682 0.093432829 0.43816641
0.00090827286 0.093648337 0.43730649
0.0015141531 0.093877867 0.43647149
0.0021333897 0.094111741 0.43564731
0.0027493341 0.09435226 0.4348681
0.003354576 0.094579153 0.43403369
0.003956527 0.094808251 0.43319389
0.0045290217 0.095017776 0.43233511
0.0050403029 0.095192432 0.43138379
0.0055252612 0.095355645 0.43035591
0.0059828293 0.0954943 0.42929229
0.0065242327 0.095679596 0.42834011
0.0070638005 0.095866181 0.42738971
0.0074655102 0.096111476 0.4262014
-0.085502468 0.14044213 0.39492771
-0.092030957 0.08687526 0.43378589
-0.012661683 0.10391244 0.4407486
-0.037648238 0.10297732 0.4419595
-0.10365103 0.10053419 0.43648359
-0.096203916 0.089828111 0.43693289
-0.097960792 0.08757963 0.43859291
-0.015729917 0.096888304 0.4468247
-0.0032957832 0.10202743 0.43637899
0.0062171267 0.10187226 0.40119216
-0.0024054048 0.10373797 0.4332563
-0.12973283 0.10719514 0.39813143
-0.11237564 0.090984493 0.4512206
-0.0062621213 0.10505849 0.43590671
-0.0044966675 0.10574009 0.433375
-0.016530959 0.10226969 0.44346079
-0.097558834 0.13217507 0.40235114
-0.11166182 0.091293149 0.45057669
-0.093873471 0.12421984 0.40279785
-0.076194607 0.1554419 0.37878221
-0.085058093 0.14535627 0.38944331
-0.010234842 0.10205919 0.441203
-0.008317057 0.10989334 0.43232071
-0.11800669 0.10235944 0.44651181
0.0076196725 0.099447839 0.40117112
-0.096327573 0.098979391 0.43309349
-0.11511452 0.098946415 0.4467048
-0.10193487 0.092102066 0.44110501
-0.097258896 0.14185251 0.39932868
-0.092629239 0.12630795 0.40211028
-0.10591675 0.10411901 0.4336791
-0.009516051 0.10237413 0.44058231
-0.10938821 0.086139962 0.45250809
-0.10864279 0.086453058 0.45191389
-0.086097643 0.14650163 0.38868701
-0.017673891 0.11184844 0.43670309
-0.0048818155 0.1084241 0.43078589
-0.1054597 0.11946181 0.41458419
-0.089584924 0.13724445 0.39828679
-0.11203358 0.097123712 0.4444522
-0.019749833 0.11383526 0.43503669
-0.018043676 0.11457769 0.43421349
-0.10336039 0.077170976 0.43776911
-0.098067284 0.12245566 0.40676805
-0.12046597 0.056554958 0.4154045
0.0083385948 0.096663296 0.39917523
-0.082970425 0.15098244 0.3847954
-0.11196329 0.10626873 0.43736202
-0.024009697 0.11486875 0.43517271
-0.089323297 0.13251127 0.40124178
-0.099531189 0.13772906 0.40281641
-0.086783089 0.1638488 0.3816708
-0.083047904 0.15737435 0.3812519
-0.082593456 0.14320898 0.39154112
-0.091194578 0.15400746 0.38962609
-0.0080540925 0.10154402 0.440312
-0.027377203 0.11636495 0.43503881
-0.098829448 0.10250536 0.4317044
-0.11827037 0.09148366 0.45239979
-0.095042497 0.096438773 0.43336469
-0.10266148 0.093330517 0.44084209
-0.0032013885 0.10192236 0.38816211
-0.011050833 0.10171524 0.4416756
-0.09768939 0.12420979 0.40651184
-0.098436005 0.12390271 0.40710464
-0.10219044 0.10114458 0.4352577
-0.091687918 0.14415358 0.39222404
-0.10071468 0.1047595 0.4304274
0.0050713303 0.10446677 0.4141596
-0.10135013 0.10450495 0.43119949
-0.1019967 0.10422523 0.43195051
-0.11172121 0.1110893 0.4368926
-0.10665949 0.08575163 0.45067611
-0.11116573 0.092970692 0.44865549
-0.11052963 0.093225509 0.4478848
-0.10878401 0.093869552 0.44532371
0.00041972118 0.10058922 0.43355361
-0.080478959 0.13946086 0.39584908
-0.0077203745 0.11012966 0.4314746
-0.024980059 0.084182881 0.45546979
-0.024116181 0.084560089 0.45507029
-0.02322628 0.084823593 0.45466539
-0.022404663 0.085319899 0.45429289
-0.021627557 0.085649796 0.45376211
-0.020901266 0.085946634 0.4531363
-0.02025063 0.086205304 0.4523851
-0.019501906 0.08651749 0.4517971
-0.018703841 0.086857155 0.45129421
-0.017975947 0.08716581 0.4506847
-0.017288599 0.087441422 0.44999641
-0.016474802 0.087788574 0.44951621
-0.0978425 0.08441934 0.4369297
-0.10487948 0.078433774 0.44361371
-0.013521242 0.089163512 0.44903931
-0.012588115 0.0895615 0.44870779
-0.011714696 0.089938223 0.44831321
-0.010863689 0.090314962 0.44791061
-0.010097469 0.09063299 0.44733459
-0.0093645537 0.090933435 0.44671449
-0.008679999 0.091205075 0.44602069
-0.0080514597 0.091448113 0.44524661
-0.0074310438 0.091685936 0.44443229
-0.0067038396 0.091985531 0.4438096
-0.0059247245 0.092300132 0.44329259
-0.005016427 0.092717819 0.4429743
-0.004043052 0.093161054 0.4427503
-0.0031897125 0.093538441 0.44234139
-0.0024811968 0.093826182 0.44169059
-0.0018655149 0.094057932 0.44087261
-0.0012702275 0.094283506 0.44003001
-0.00068297336 0.094503917 0.43917781
-0.00010935579 0.094720416 0.43832099
0.00043916737 0.094915695 0.43738779
0.0010043047 0.095119469 0.43647471
0.0015986842 0.095349327 0.43567809
0.0022082105 0.095581561 0.4348475
0.0027811779 0.095788904 0.433936
0.0033549468 0.096001893 0.43313241
0.0038966038 0.096190758 0.43219909
0.0043986891 0.096364088 0.43118471
0.0048837527 0.096520513 0.43015081
0.0053745974 0.096682049 0.4291034
0.0058955578 0.096857905 0.42814201
0.0064143492 0.097033501 0.4271788
-0.040203832 0.10257794 0.37983951
-0.0031231048 0.11298967 0.40317595
0.0031436272 0.094006859 0.38622209
-0.084310874 0.14246081 0.39233819
-0.093474515 0.1466196 0.39297974
-0.0058740419 0.11087495 0.42903501
-0.10187031 0.12036841 0.39579889
-0.13737771 0.10119266 0.4092207
-0.084173277 0.13794579 0.39885661
-0.0051898202 0.10128468 0.4387182
-0.091080211 0.087330773 0.43357989
-0.003560707 0.10328162 0.4350211
-0.083415911 0.14281636 0.39196762
-0.099679686 0.12499058 0.40782589
-0.0056460616 0.10532146 0.43509829
-0.005054988 0.10555016 0.4342567
-0.01729992 0.10192953 0.4439995
-0.10266346 0.11742698 0.41188219
-0.1062886 0.11324757 0.42951411
-0.0044352952 0.10017072 0.43910721
-0.086215787 0.15124877 0.38589931
-0.080729157 0.14715587 0.38742289
-0.096297033 0.08665926 0.43677479
-0.0071209613 0.11037795 0.43063599
0.00026410993 0.10193306 0.4323259
0.0024265964 0.10312288 0.39519313
-0.097673699 0.098425046 0.43451491
-0.11578292 0.098689049 0.44741651
-0.10352423 0.091422088 0.44213709
-0.023823503 0.093265988 0.44976681
-0.13516015 0.090271994 0.4222174
-0.021378804 0.10161465 0.44538429
-0.09731511 0.12597002 0.40625939
-0.097849466 0.14162521 0.40019536
-0.083873071 0.16344897 0.37828201
-0.078123935 0.15304296 0.3818787
-0.0027430167 0.11320772 0.40816522
-0.11314394 0.090651095 0.451763
-0.11683874 0.10742931 0.44208229
-0.10859553 0.089506574 0.4501642
-0.111605 0.11728328 0.433498
-0.018869534 0.1142053 0.43465209
-0.081049442 0.14234617 0.39315385
-0.1189605 0.092734806 0.45218199
-0.10239726 0.077593736 0.4375872
-0.080582865 0.16158305 0.37637329
-0.04170711 0.086790077 0.36817059
-0.12269826 0.10667777 0.38208669
-0.0080837328 0.10856988 0.43367141
-0.11127751 0.10655496 0.43668389
-0.13539936 0.13331489 0.3489171
-0.088512488 0.13286877 0.40076429
-0.091826878 0.15695159 0.39043197
-0.0052231112 0.11512237 0.41016531
-0.09232942 0.15354064 0.39137951
-0.082326077 0.1576885 0.38062331
-0.09223751 0.13914935 0.39576918
-0.096209362 0.13747385 0.39829329
-0.012639293 0.09959951 0.44365779
-0.038412493 0.11822123 0.4333795
-0.092622317 0.10035072 0.4265222
-0.10920346 0.095188431 0.44371149
-0.10863303 0.095407404 0.44283241
-0.10343814 0.09299691 0.44136679
-0.10419586 0.092679799 0.44193739
-0.10488728 0.092399903 0.44261399
-0.1054762 0.092166781 0.44347331
-0.11373258 0.11487798 0.43632099
0.0052947681 0.095109612 0.39021793
-0.087792598 0.14736146 0.38865131
-0.083708324 0.1490846 0.3862738
-0.099931069 0.11519905 0.40644062
0.0025911799 0.10796408 0.41116279
-0.098822199 0.093411945 0.4389742
-0.087420389 0.16516186 0.3815507
-0.11415208 0.10390304 0.44189301
-0.10583367 0.11947358 0.41539541
-0.084544644 0.15515244 0.38327959
-0.10934018 0.093669489 0.44621271
-0.0064871535 0.11061558 0.42986479
-0.10602547 0.10561854 0.4326058
-0.0034832945 0.11288376 0.4191716
-0.02480072 0.085697614 0.4547874
-0.023990098 0.086172692 0.4544498
-0.02299994 0.086509556 0.4541581
-0.02218019 0.086869776 0.45370081
-0.02141677 0.08719065 0.45314211
-0.020786518 0.0874319 0.45235389
-0.020000959 0.087769091 0.45183459
-0.019216087 0.088100359 0.4513106
-0.018521141 0.088386379 0.450636
-0.017908612 0.088605352 0.4498122
-0.017252777 0.088905044 0.44911411
-0.11394324 0.099409938 0.44497019
-0.096140042 0.085145086 0.43609759
-0.091519713 0.096258134 0.4291105
-0.013179514 0.090747029 0.44855851
-0.012345393 0.091119587 0.44814351
-0.011516721 0.091477342 0.4476805
-0.010718473 0.091811344 0.4471615
-0.010012183 0.092097402 0.44649801
-0.0093235774 0.092370503 0.44581321
-0.0086629391 0.092634305 0.44507691
-0.0079766167 0.092910036 0.44439349
-0.0072681298 0.093197331 0.44376099
-0.0064203227 0.093571343 0.4433386
-0.0054773227 0.093995936 0.4430941
-0.0045218915 0.094425783 0.442819
-0.0037527725 0.094749875 0.44227079
-0.0030523273 0.095035687 0.44160289
-0.0024034758 0.095291354 0.44085091
-0.0018008223 0.095519006 0.44001269
-0.0011726703 0.095763505 0.43924439
-0.0005963812 0.095974065 0.4383392
-4.0490253e-05 0.096177697 0.43746299
0.00049880694 0.096372508 0.43652749
0.0010722583 0.096586004 0.43566981
0.0016581604 0.096804455 0.43481991
0.0021958498 0.096994266 0.43388361
0.0027277942 0.097180188 0.43294409
0.003249787 0.09736295 0.4319407
0.0037519066 0.097529151 0.43098071
0.0042286809 0.097682595 0.4299331
0.0047226306 0.097845517 0.42889071
0.0052133915 0.098003335 0.427912
0.0057178866 0.098172694 0.42687401
-0.10475355 0.11144371 0.42742479
-0.1024944 0.13009389 0.40690869
0.0061824657 0.10344934 0.40816686
-0.13002616 0.11007403 0.39811492
-0.11092123 0.091576092 0.44997019
-0.086196631 0.14965478 0.3867915
-0.0095411213 0.098057672 0.4434182
-0.0014410239 0.10548545 0.43026599
-0.11228199 0.11701585 0.43418661
-0.0065651825 0.10071076 0.4400886
-0.090937063 0.15571824 0.38916251
-0.088977538 0.15814592 0.38612151
0.0035150365 0.1005111 0.39219591
0.0022166006 0.10459227 0.39720151
-0.0039075846 0.10596602 0.43252289
-0.018062701 0.10160059 0.44454721
-0.018866964 0.10129234 0.44506931
-0.11891267 0.12561604 0.36640671
-0.12564281 0.1347498 0.35143569
-0.13172947 0.11755031 0.38796821
-0.085419491 0.15156345 0.3853766
-0.073574573 0.15022114 0.3829143
-0.12984514 0.1131245 0.39709729
-0.11214662 0.11401633 0.4362061
-0.083534084 0.13966852 0.39712644
0.0018709135 0.10107937 0.4304567
0.0047052647 0.099582061 0.42716441
-0.098376311 0.098134018 0.43517551
-0.13195582 0.075367719 0.42629421
-0.10421119 0.091141872 0.4428232
-0.096733354 0.1420518 0.39835665
-0.051671986 0.096293926 0.37825739
-0.10086021 0.1181263 0.40938553
-0.09457168 0.0889185 0.43507311
-0.095855169 0.088420421 0.43661219
0.0062665553 0.098745994 0.39620811
-0.095823154 0.12655878 0.40504289
-0.034934804 0.11446733 0.4361473
-0.035866868 0.11408559 0.43646899
-0.10608555 0.085970968 0.44980901
-0.11250755 0.11075819 0.43741161
-0.042270076 0.097135976 0.37776911
0.0062431265 0.103467 0.40717003
-0.025092227 0.11880079 0.43239051
-0.11967876 0.061072815 0.4064261
-0.12109025 0.09645389 0.39318505
-0.1017936 0.093698665 0.44043571
-0.1324012 0.076643385 0.4272936
-0.13386963 0.081946082 0.4302595
-0.067140341 0.096499056 0.3844271
-0.13293076 0.11782663 0.38207811
-0.11055856 0.106869 0.43608281
-0.092019536 0.14882421 0.3908692
-0.087736525 0.1331826 0.40021583
-0.108482 0.098472513 0.43943399
-0.091787182 0.15374902 0.39042664
-0.11670804 0.1059627 0.44319829
-0.09303733 0.13880397 0.39623183
-0.098238178 0.13037184 0.40401655
-0.081204802 0.16133192 0.37715051
-0.088410728 0.16316271 0.38440049
-0.10450941 0.12294891 0.41078791
-0.084442228 0.14719489 0.3877615
-0.13257143 0.076637819 0.43628341
-0.085427523 0.16114688 0.3746424
-0.046893664 0.095242478 0.37721699
-0.10132691 0.099965282 0.43576181
-0.10603298 0.091940492 0.4444184
-0.10654027 0.091759577 0.44540629
-0.10760674 0.091366544 0.44727501
0.0060558873 0.10337915 0.40517592
-0.12016778 0.12841044 0.3433997
-0.09997268 0.11194113 0.41139209
-0.080230348 0.033704042 0.4248018
-0.074264027 0.15613982 0.3752456
-0.084020555 0.035678487 0.4301523
-0.099852972 0.11199287 0.41039321
0.0065103844 0.10205012 0.41516301
0.0073929299 0.10090932 0.40417224
-0.11963029 0.097055361 0.4501828
-0.10991715 0.093445659 0.44708622
-0.090454832 0.092090398 0.43000329
-0.10351072 0.085341386 0.44415399
-0.097629242 0.096918382 0.4355005
-0.018980753 0.10265124 0.44390881
-0.023695666 0.087637037 0.45384279
-0.022868432 0.088012367 0.4534187
-0.022094537 0.088345058 0.45288581
-0.021362904 0.088630572 0.45225939
-0.020543784 0.088993348 0.45178989
-0.019751877 0.08933717 0.4512828
-0.019071313 0.089602508 0.45058739
-0.018487541 0.089816175 0.44972891
-0.01790165 0.090061568 0.448881
-0.098890498 0.11891188 0.4071714
-0.095414028 0.085420914 0.43547571
-0.096950702 0.08479847 0.43658161
-0.12002028 0.12686852 0.36641011
-0.012991358 0.09228424 0.44792071
-0.012158307 0.092649981 0.4474811
-0.011344812 0.092992894 0.44698209
-0.010606664 0.093290634 0.44637331
-0.0099334978 0.09356416 0.4456585
-0.009220032 0.093848325 0.4450202
-0.0085337907 0.09412922 0.44432759
-0.0077536767 0.094462313 0.44380921
-0.0068944814 0.094840713 0.44340971
-0.0060211718 0.095223449 0.44307569
-0.0051523428 0.095603675 0.44264171
-0.0043664295 0.095925644 0.44210461
-0.0036770895 0.096217349 0.44142449
-0.0030084534 0.096475691 0.44071779
-0.0023878671 0.096719109 0.43990591
-0.0017303214 0.096979134 0.4391607
-0.0011448649 0.097199447 0.4383091
-0.00058315689 0.097405493 0.43744001
-3.2101623e-05 0.097603545 0.43651399
0.00054406107 0.097818062 0.43565741
0.0011011424 0.098021425 0.43473521
0.0016198455 0.098201424 0.43384129
0.0021389092 0.098378979 0.43283689
0.0026099682 0.09853524 0.4318057
0.0030905609 0.098689392 0.43076661
0.0036078631 0.09886989 0.42973599
0.0041108239 0.099034064 0.42876509
0.0045974003 0.099192321 0.42778471
-0.010413686 0.11477239 0.42864498
-0.12764528 0.10950373 0.39210877
-0.089166604 0.13573569 0.40145329
-0.019949092 0.093518704 0.4480767
-0.020670708 0.093205616 0.44868961
-0.021328187 0.09293393 0.44942611
-0.02203561 0.092633873 0.45006889
-0.0087767905 0.098383136 0.44286421
-0.077793203 0.15637194 0.37891081
-0.090616718 0.12876838 0.40091038
-0.0058618984 0.10099807 0.4394336
-0.10125795 0.12432168 0.40885523
-0.0098034767 0.11498076 0.42785421
-0.086990185 0.16056131 0.38305289
-0.093079276 0.10020041 0.42752889
-0.0033135472 0.1061967 0.4316743
-0.010418602 0.10478853 0.43898171
-0.12275473 0.071473382 0.40328148
-0.11879455 0.097424276 0.4497506
-0.11545487 0.10645038 0.44162321
-0.084637299 0.15189937 0.3848477
-0.12252342 0.068799354 0.40936714
-0.13210452 0.073817834 0.41530421
-0.10742257 0.11583129 0.42754081
-0.0030592722 0.099286504 0.43871129
-0.11274541 0.093827382 0.44878319
-0.089344211 0.14513089 0.39061734
-0.097006768 0.098709963 0.43378401
-0.10840164 0.092560224 0.4468559
-0.1027641 0.091740184 0.4415696
-0.10925394 0.087715253 0.45180729
