0.04895220 0.04587700 0.02373400
0.05102637 0.04712601 0.02288841
0.05271925 0.04781870 0.02143850
-0.05176687 0.05102232 0.02263080
0.05225290 0.04958800 0.02435490
0.05452916 0.05083339 0.02281714
0.05665105 0.05233085 0.02148265
-0.05175854 0.05414545 0.02288384
0.05576330 0.05389690 0.02421100
0.05726170 0.05463973 0.02242641
-0.05756780 0.05897757 0.02150170
-0.05406666 0.05877684 0.02305126
-0.05210430 0.05643135 0.02229575
0.05804505 0.05812753 0.02265574
-0.06715178 0.06249975 0.02211173
-0.06444021 0.06184037 0.02275383
-0.06110822 0.06076572 0.02258272
-0.05848553 0.06012706 0.02267126
0.05867139 0.06146730 0.02250269
-0.07124290 0.06538521 0.02226795
-0.06884871 0.06400905 0.02309822
-0.06624820 0.06318800 0.02434840
0.05832978 0.06481438 0.02282672
-0.07531913 0.06892586 0.02275888
-0.07278048 0.06711186 0.02309582
0.04531290 0.06982370 0.02346600
0.04664585 0.06926140 0.02403210
0.05519300 0.06937066 0.02365267
0.05716810 0.06833117 0.02255092
-0.07825696 0.07180079 0.02264104
-0.07671390 0.07067800 0.02446260
0.04494024 0.07203680 0.02274608
0.04723714 0.07057630 0.02216810
0.05075364 0.07104719 0.02276460
0.05405323 0.07098804 0.02236219
0.05608140 0.07042340 0.02163510
-0.08129197 0.07595927 0.02276808
-0.08005517 0.07434144 0.02294853
0.04494023 0.07522001 0.02289916
-0.08314974 0.07857638 0.02241180
0.04492286 0.07895941 0.02356596
0.04558310 0.07893660 0.02159517
-0.08474981 0.08222754 0.02261172
0.04505234 0.08224276 0.02266687
0.04564980 0.08060340 0.02116000
-0.08767670 0.08747900 0.02195315
-0.08634432 0.08566930 0.02310562
0.04488511 0.08545189 0.02266326
-0.08825353 0.08979290 0.02266621
-0.08706720 0.08820480 0.02433300
0.04442988 0.08892854 0.02266060
-0.08873282 0.09293808 0.02250493
0.04387970 0.09265314 0.02282470
-0.08852170 0.09632017 0.02269313
0.04319249 0.09602689 0.02252317
-0.08812626 0.09967885 0.02221050
-0.08730480 0.09975640 0.02420045
0.04128870 0.10049391 0.02283382
0.04225780 0.09866873 0.02216523
-0.08757790 0.10233300 0.02136480
-0.08630220 0.10366625 0.02305579
0.04024390 0.10349850 0.02266709
-0.08493569 0.10699137 0.02285414
0.03802544 0.10808760 0.02295820
0.03916393 0.10616601 0.02245253
-0.08572624 0.11040208 0.02285595
0.03666256 0.11040890 0.02289049
-0.09144273 0.11495733 0.02205167
-0.08928160 0.11350181 0.02264420
-0.08709615 0.11234750 0.02384475
0.03433870 0.11401350 0.02287535
0.03534037 0.11252733 0.02277093
-0.09298494 0.11749992 0.02279662
0.03071037 0.11832229 0.02266267
0.03240996 0.11649500 0.02269257
-0.09419624 0.12080425 0.02279077
-0.02904070 0.12196666 0.02394457
0.02684179 0.12161227 0.02284239
0.02871807 0.12020416 0.02265999
-0.09458010 0.12350500 0.02177670
-0.09430944 0.12453425 0.02327619
-0.04390984 0.12454890 0.02299806
-0.04032766 0.12476472 0.02279526
-0.03693941 0.12497744 0.02269202
-0.03316092 0.12395483 0.02270277
-0.02960910 0.12303083 0.02224235
-0.02612037 0.12317216 0.02275682
-0.02303647 0.12412714 0.02270504
-0.02001223 0.12531967 0.02321547
0.01990585 0.12569925 0.02342395
0.02290392 0.12458465 0.02265080
0.02497373 0.12307726 0.02280687
-0.09390265 0.12761223 0.02275680
-0.04597898 0.12801941 0.02349140
-0.04502754 0.12700467 0.02154867
-0.01862887 0.12635499 0.02222133
-0.01583931 0.12731771 0.02272297
-0.01212717 0.12853412 0.02276691
-0.00920130 0.12919949 0.02326428
-0.00680045 0.12942401 0.02448830
0.01261951 0.12908001 0.02288383
0.01577464 0.12790130 0.02261876
0.01873985 0.12646784 0.02229837
-0.09269310 0.13102850 0.02273559
-0.04686544 0.13139233 0.02280467
-0.00777705 0.12980400 0.02220614
-0.00507764 0.13004257 0.02262704
-0.00167850 0.13024122 0.02280144
0.00167722 0.13045786 0.02280216
0.00497549 0.13049355 0.02265310
0.00869681 0.13007790 0.02288206
0.01110500 0.12970699 0.02233140
-0.09116780 0.13375734 0.02221893
-0.09024838 0.13558200 0.02287810
-0.04945857 0.13551700 0.02270328
-0.04839183 0.13409249 0.02262297
-0.09016068 0.13856000 0.02268447
-0.05093297 0.13757330 0.02283469
-0.09122802 0.14268550 0.02216360
-0.09053954 0.14132316 0.02316803
-0.05278968 0.14219576 0.02328297
-0.05217535 0.14045700 0.02214340
-0.09149951 0.14543287 0.02265159
-0.05331265 0.14545900 0.02289736
-0.09138152 0.14776298 0.02233632
-0.09019595 0.14963973 0.02283923
-0.05318839 0.14855063 0.02290702
-0.08838353 0.15155767 0.02240688
-0.08587972 0.15282860 0.02271630
-0.08345685 0.15364701 0.02362290
-0.05413763 0.15234570 0.02281381
-0.08185802 0.15438959 0.02252270
-0.07878292 0.15520768 0.02274405
-0.07541034 0.15579157 0.02267153
-0.07158536 0.15614688 0.02286598
-0.06785181 0.15624233 0.02272039
-0.06471924 0.15613000 0.02277807
-0.06149043 0.15572050 0.02291194
-0.05779539 0.15495349 0.02271495
-0.05567160 0.15425101 0.02166475
-0.06385548 0.03455507 0.02595795
-0.06122462 0.03419282 0.02645037
-0.05761606 0.03411003 0.02602934
-0.05427873 0.03416587 0.02655620
-0.05130947 0.03391823 0.02626251
-0.04703902 0.03381217 0.02750457
-0.04332115 0.03385030 0.02648270
-0.04021043 0.03397503 0.02702540
-0.03650678 0.03415182 0.02693744
-0.03353695 0.03440015 0.02604800
0.00948139 0.03485553 0.02565800
0.01240618 0.03472617 0.02606773
0.01563053 0.03476868 0.02595264
0.01843507 0.03491400 0.02622297
-0.06505202 0.03659222 0.02594990
-0.03728770 0.03538320 0.02462640
-0.03166940 0.03573910 0.02726190
-0.02941143 0.03752083 0.02673155
-0.02602827 0.03813656 0.02627676
-0.02264311 0.03823187 0.02611494
-0.01923995 0.03839787 0.02653643
-0.01620810 0.03844124 0.02585836
-0.01210850 0.03845188 0.02524728
0.00291872 0.03838910 0.02476630
0.00557761 0.03710459 0.02565666
0.00820363 0.03617553 0.02682626
0.01093680 0.03502700 0.02760860
0.01995835 0.03511417 0.02710715
0.02289480 0.03598266 0.02629436
0.02657037 0.03759820 0.02614856
0.02974735 0.03813310 0.02501625
-0.06392447 0.04039747 0.02663927
-0.06245320 0.04054233 0.02495743
-0.01516360 0.03852260 0.02695903
-0.01221080 0.03856640 0.02692573
-0.00856090 0.03860801 0.02686394
-0.00505680 0.03866052 0.02560123
-0.00169668 0.03878599 0.02630526
0.00170503 0.03894960 0.02672642
0.00433627 0.03880703 0.02694342
0.03004417 0.03911683 0.02653809
0.03345218 0.04035890 0.02651425
0.03669874 0.04073497 0.02593260
0.03911365 0.04114850 0.02514720
-0.06133074 0.04335158 0.02652213
-0.05814248 0.04488357 0.02585020
0.04060753 0.04289003 0.02692567
0.04355579 0.04398709 0.02598093
0.04584690 0.04463080 0.02522020
-0.05672150 0.04662000 0.02767470
-0.05455079 0.04719862 0.02595456
0.04536720 0.04565390 0.02694380
0.04761189 0.04667472 0.02623340
0.04970310 0.04821377 0.02594433
-0.05289770 0.04964763 0.02636892
-0.05231420 0.05151532 0.02584376
0.05092329 0.05027464 0.02647868
0.05275880 0.05103310 0.02509950
-0.05209502 0.05438711 0.02628953
0.05194180 0.05256930 0.02748870
0.05403656 0.05408772 0.02637039
0.05603370 0.05530310 0.02459520
-0.05256610 0.05809835 0.02550795
-0.05226358 0.05715703 0.02633926
0.05515686 0.05775178 0.02664710
0.05632600 0.05808590 0.02505974
-0.06442451 0.06279606 0.02506563
-0.06109447 0.06236769 0.02613076
-0.05799413 0.06144334 0.02581329
-0.05393446 0.06039480 0.02674021
0.05492812 0.06088490 0.02748583
0.05667758 0.06151797 0.02561077
-0.07018390 0.06588020 0.02471050
-0.06800973 0.06505790 0.02603226
-0.06486309 0.06382786 0.02672137
-0.06289160 0.06310160 0.02689010
0.04369765 0.06559617 0.02727892
0.04749290 0.06648316 0.02738997
0.05050950 0.06649131 0.02751985
0.05430549 0.06511918 0.02696709
0.05681658 0.06458662 0.02513170
-0.07424657 0.06920594 0.02625088
-0.07187118 0.06759664 0.02619091
-0.06951500 0.06675845 0.02759435
0.04337787 0.06855021 0.02644232
0.04726115 0.06822656 0.02557279
0.05060858 0.06852559 0.02582544
0.05400777 0.06816389 0.02531489
-0.07780381 0.07262540 0.02606272
-0.07594358 0.07081696 0.02650429
0.04358484 0.07143080 0.02589340
-0.08114740 0.07695370 0.02517010
-0.07935251 0.07505088 0.02629209
0.04367351 0.07500786 0.02613139
-0.08250729 0.07901621 0.02613650
0.04371512 0.07908113 0.02624418
-0.08433651 0.08276772 0.02599272
-0.08360454 0.08169675 0.02774630
0.04375621 0.08264589 0.02643521
-0.08501873 0.08577926 0.02638330
0.04364114 0.08583981 0.02625124
-0.08758210 0.09094270 0.02473320
-0.08629003 0.08919647 0.02619184
0.04284779 0.08941899 0.02655398
-0.08772340 0.09299515 0.02481855
-0.08655534 0.09256936 0.02668512
0.04186260 0.09415340 0.02722570
0.04254332 0.09267345 0.02634362
-0.08766691 0.09638754 0.02466220
-0.08662296 0.09646025 0.02645192
0.04155044 0.09664024 0.02636102
0.04245230 0.09584970 0.02515680
-0.08598908 0.09984288 0.02641936
0.04023113 0.09996372 0.02642676
-0.08521126 0.10306380 0.02597782
-0.08381554 0.10393650 0.02766320
0.03824860 0.10464300 0.02731230
0.03916975 0.10337900 0.02631991
-0.08427624 0.10608450 0.02535045
-0.08319023 0.10678413 0.02678781
0.03757823 0.10695234 0.02631952
0.03880750 0.10554000 0.02516690
-0.08502218 0.11122784 0.02645469
-0.08329560 0.10930701 0.02661125
0.03453397 0.11099775 0.02745360
0.03620148 0.10958350 0.02599803
-0.08902495 0.11438423 0.02606948
-0.08668110 0.11266626 0.02640065
0.03343644 0.11350381 0.02620929
-0.09190768 0.11757411 0.02603035
-0.09057100 0.11601301 0.02683845
0.02997377 0.11744939 0.02645961
0.03222300 0.11570700 0.02516960
-0.09324325 0.12080250 0.02629590
-0.04649404 0.12194540 0.02719126
-0.04403998 0.12141100 0.02684514
-0.03990930 0.12217433 0.02744940
-0.03574295 0.12203700 0.02745790
-0.03330271 0.12170614 0.02665494
-0.03023745 0.12113410 0.02619890
-0.02657030 0.12151001 0.02632234
-0.02356373 0.12209401 0.02746010
0.02419060 0.12190100 0.02716110
0.02607776 0.12078182 0.02631313
0.02843455 0.11956250 0.02517175
-0.09356222 0.12419400 0.02628180
-0.04624138 0.12430215 0.02594324
-0.04362953 0.12316433 0.02499180
-0.03974585 0.12339601 0.02562593
-0.03674661 0.12330471 0.02580469
-0.03419205 0.12318200 0.02503080
-0.02271838 0.12314381 0.02560838
-0.01902206 0.12432601 0.02621158
-0.01591167 0.12555002 0.02664000
-0.01369480 0.12592100 0.02787670
0.01709273 0.12553434 0.02692493
0.01938731 0.12478355 0.02615453
0.02242055 0.12345650 0.02621466
-0.09319191 0.12762150 0.02626273
-0.04690597 0.12734742 0.02631184
-0.01468485 0.12680799 0.02533590
-0.01206479 0.12718271 0.02636340
-0.00867935 0.12825985 0.02632640
-0.00523216 0.12887324 0.02633511
-0.00199607 0.12885417 0.02696152
0.00186868 0.12888101 0.02704786
0.00544687 0.12900518 0.02674543
0.00908897 0.12880154 0.02638867
0.01238139 0.12809590 0.02616742
0.01535669 0.12703900 0.02596383
0.01781920 0.12612399 0.02480530
-0.09205519 0.13104001 0.02623736
-0.04923730 0.13288300 0.02676350
-0.04797283 0.13092130 0.02613578
-0.00139130 0.12968700 0.02499435
0.00152031 0.12970175 0.02532740
0.00530464 0.12976700 0.02501773
-0.09019962 0.13445450 0.02621348
-0.05032398 0.13486356 0.02632505
-0.08922724 0.13788834 0.02619233
-0.05305475 0.13891225 0.02699083
-0.05184083 0.13704629 0.02607811
-0.09117050 0.14338800 0.02566590
-0.09062061 0.14176200 0.02641374
-0.05344563 0.14168912 0.02642523
-0.09118182 0.14534800 0.02544958
-0.09067614 0.14506699 0.02693650
-0.05414459 0.14544550 0.02640575
-0.08935257 0.14872742 0.02605380
-0.05443895 0.14864077 0.02661789
-0.08768640 0.15113500 0.02500690
-0.08567277 0.15187116 0.02638455
-0.08232366 0.15334500 0.02650770
-0.05671615 0.15386149 0.02711130
-0.05466922 0.15200573 0.02604062
-0.08134580 0.15409800 0.02508420
-0.07858224 0.15454701 0.02642141
-0.07516619 0.15530862 0.02605368
-0.07191505 0.15556486 0.02639709
-0.06833384 0.15575050 0.02624034
-0.06472500 0.15554601 0.02625851
-0.06113805 0.15511125 0.02624316
-0.05797925 0.15451072 0.02592170
-0.06439706 0.03456039 0.02946243
-0.06103220 0.03426953 0.02992723
-0.05783877 0.03423150 0.02938627
-0.05421303 0.03434057 0.02980777
-0.05064601 0.03434201 0.02958491
-0.04724268 0.03432457 0.02966053
-0.04375743 0.03428425 0.02972422
-0.04027506 0.03429569 0.02951366
-0.03668946 0.03432358 0.02999084
-0.03417895 0.03477940 0.03025090
0.01331187 0.03482026 0.02888223
0.01558617 0.03484608 0.02962470
0.01800800 0.03494090 0.02912890
-0.06694635 0.03650800 0.03125375
-0.06629512 0.03644595 0.02958827
-0.03233833 0.03633667 0.03017090
-0.02956410 0.03803425 0.03013284
-0.02631802 0.03830583 0.02995973
-0.02285966 0.03842016 0.02949854
-0.01969640 0.03846820 0.02907870
-0.01494610 0.03849610 0.02822760
0.00929023 0.03733833 0.02962198
0.01148932 0.03553788 0.02979484
0.01737950 0.03501980 0.03073700
0.01958332 0.03522086 0.03028696
0.02300332 0.03679770 0.02921084
0.02511907 0.03815014 0.02962743
-0.06521308 0.04048590 0.02981268
-0.01912832 0.03857271 0.03000205
-0.01599884 0.03866000 0.03038718
-0.01238490 0.03866724 0.02937410
-0.00877459 0.03880989 0.03024437
-0.00519359 0.03884643 0.02946691
-0.00164777 0.03898570 0.02961802
0.00176494 0.03917306 0.03002227
0.00535619 0.03918575 0.02974629
0.00780649 0.03883794 0.03018300
0.02698077 0.03975788 0.03024214
0.02935420 0.04120810 0.02968250
0.03195550 0.04139370 0.02800700
-0.06397538 0.04290958 0.03010490
-0.06241953 0.04441850 0.02968230
0.03027364 0.04371242 0.03077646
0.03298462 0.04404937 0.02952258
0.03656279 0.04389184 0.02944001
0.03980493 0.04447576 0.02946768
0.04239690 0.04512830 0.02862780
-0.06048396 0.04560523 0.02968043
-0.05774310 0.04708293 0.02992320
-0.05558425 0.04791510 0.02916620
0.03316043 0.04713967 0.03100520
0.03665983 0.04741931 0.03127272
0.04035613 0.04638740 0.03111845
0.04384502 0.04690235 0.02961769
0.04677637 0.04826547 0.02875327
-0.05324719 0.04965656 0.02945754
-0.05205882 0.05148534 0.03016880
0.03452330 0.04981890 0.03149440
0.03550570 0.04983070 0.03148900
0.04492190 0.04972230 0.03136540
0.04729811 0.05035360 0.02992784
0.04957755 0.05116465 0.02845675
-0.05162948 0.05436807 0.02975467
0.03753210 0.05479190 0.03143135
0.03853070 0.05549810 0.03136840
0.04801695 0.05351033 0.03090308
0.05054902 0.05411512 0.02929962
0.05266790 0.05542830 0.02857250
-0.05170752 0.05768481 0.02956516
0.03772270 0.05617470 0.03149090
0.03968247 0.05786185 0.03113008
0.04249260 0.05834690 0.03134860
0.04845015 0.05748095 0.03119520
0.05066713 0.05747354 0.03008364
0.05328777 0.05750320 0.02860885
-0.05747820 0.06253900 0.02879347
-0.05395177 0.06216303 0.02978150
-0.05202838 0.06072132 0.03024743
0.04038624 0.06100262 0.03020362
0.04385858 0.06119916 0.03008704
0.04730511 0.06097222 0.03077032
0.05089216 0.06097688 0.02991650
0.05334741 0.06088670 0.02872088
-0.06746507 0.06624597 0.02905877
-0.06486470 0.06520078 0.02948053
-0.06142838 0.06410841 0.02983877
-0.05812322 0.06338331 0.03028863
-0.05582790 0.06357920 0.03147890
0.04084983 0.06450450 0.02971816
0.04401113 0.06375717 0.02836935
0.04749558 0.06448195 0.02882791
0.05088953 0.06438860 0.02869622
0.05308750 0.06353225 0.02835205
-0.07149433 0.06871265 0.02919845
-0.06865550 0.06762251 0.03034652
0.04121726 0.06839894 0.02963142
-0.07515819 0.07190706 0.02965735
-0.07262417 0.07020461 0.03039660
0.04122543 0.07183853 0.03054490
0.04232005 0.07174297 0.02856702
-0.07812335 0.07563702 0.02955408
-0.07634275 0.07437310 0.03099995
0.04130390 0.07522413 0.03070848
0.04238910 0.07513098 0.02870589
-0.08145179 0.07933200 0.02945720
-0.07979068 0.07799983 0.03022169
0.04136120 0.07859883 0.03081145
0.04234457 0.07850540 0.02872183
-0.08281597 0.08243322 0.02975622
0.04141353 0.08197435 0.03092255
0.04245536 0.08188809 0.02887882
-0.08410950 0.08633970 0.02849940
-0.08319179 0.08560881 0.03015741
0.04140634 0.08617786 0.03057927
0.04241924 0.08564605 0.02871160
-0.08470207 0.08928383 0.02852063
-0.08330127 0.08913385 0.03043018
0.04122870 0.08929471 0.02984537
-0.08483462 0.09248903 0.02903021
-0.08322398 0.09255624 0.03095151
0.04074914 0.09276999 0.02981417
-0.08487695 0.09655421 0.02895092
-0.08329587 0.09662201 0.03089535
0.04019931 0.09637181 0.02919250
-0.08435508 0.09969590 0.02880277
-0.08284545 0.10019238 0.03033621
0.03804684 0.09988978 0.03058302
0.03901727 0.09932223 0.02934345
-0.08417970 0.10192700 0.02808130
-0.08214672 0.10333169 0.02981537
-0.08029090 0.10473200 0.03118130
0.03686427 0.10357700 0.02987608
0.03879470 0.10195900 0.02818080
-0.08134520 0.10677800 0.02932513
-0.07999283 0.10700800 0.03114923
0.03425000 0.10693000 0.03094273
0.03584925 0.10668366 0.02913287
-0.08464734 0.11164767 0.03009047
-0.08220765 0.11002919 0.02960255
0.03137530 0.11140300 0.03147310
0.03337779 0.11016054 0.02971566
0.03532120 0.10866900 0.02837420
-0.08882607 0.11416199 0.02984824
-0.08624092 0.11258499 0.02944966
0.03062583 0.11415301 0.02994151
0.03213525 0.11283000 0.02920910
-0.09179301 0.11787789 0.02997101
-0.09068340 0.11605901 0.02931693
-0.04743793 0.11809900 0.03075832
-0.04350176 0.11796901 0.03100000
-0.04049943 0.11800767 0.03144773
-0.03699642 0.11800750 0.03128888
-0.03349537 0.11800467 0.03112643
-0.02985293 0.11819515 0.03066297
-0.02735110 0.11849751 0.03092490
0.02651046 0.11766207 0.03015231
0.02885576 0.11637601 0.02947172
-0.09247264 0.12081187 0.02978884
-0.04789023 0.12029520 0.02943438
-0.04367216 0.11959259 0.02916362
-0.04021681 0.11994757 0.02957156
-0.03684565 0.12054560 0.02938727
-0.03344219 0.11980963 0.02929796
-0.02985580 0.11955301 0.02890432
-0.02581467 0.11995057 0.02973797
-0.02252771 0.12138201 0.02956474
-0.01912914 0.12224060 0.03044166
-0.01727185 0.12232150 0.03121325
0.02008287 0.12204733 0.03090240
0.02311665 0.12105019 0.02974712
0.02526275 0.11970150 0.02899170
-0.09265979 0.12419867 0.02977017
-0.04900560 0.12254900 0.03076870
-0.04808472 0.12424650 0.02948333
-0.01939227 0.12297600 0.02883967
-0.01564853 0.12405200 0.02978991
-0.01237802 0.12494000 0.03041883
-0.00932337 0.12522383 0.03106915
0.00803725 0.12588900 0.03130000
0.01225730 0.12536421 0.03080510
0.01590319 0.12423816 0.02972989
0.01935927 0.12322915 0.02925814
0.02149860 0.12261200 0.02903010
-0.09231424 0.12762013 0.02975304
-0.04950405 0.12827849 0.03101830
-0.04845072 0.12740301 0.02959838
-0.01194380 0.12622401 0.02850570
-0.00836686 0.12664199 0.02929820
-0.00491818 0.12693243 0.02997176
-0.00153046 0.12724356 0.02979727
0.00212600 0.12721121 0.02966372
0.00530808 0.12716550 0.02959586
0.00838781 0.12699912 0.02961107
0.01207472 0.12668087 0.02905161
-0.09150210 0.13058668 0.02956398
-0.09057570 0.13241100 0.03022287
-0.05005047 0.13153189 0.02971870
-0.04862955 0.12964451 0.02877375
-0.08973994 0.13446875 0.02971270
-0.05303964 0.13486232 0.03089790
-0.05160985 0.13448450 0.02933048
-0.08929586 0.13790344 0.02969277
-0.05607220 0.13957000 0.03122220
-0.05424320 0.13791247 0.02971234
-0.08976822 0.14197741 0.02975331
-0.05657633 0.14147301 0.03105010
-0.05497872 0.14170401 0.02924042
-0.08930800 0.14513174 0.02978177
-0.05616146 0.14532533 0.03112183
-0.05497183 0.14517355 0.02939925
-0.08825465 0.14765500 0.02958922
-0.08666540 0.14948316 0.02983353
-0.05671150 0.14866267 0.03090617
-0.05563518 0.14864160 0.02898492
-0.08494990 0.15139480 0.02875792
-0.08218739 0.15214515 0.03007190
-0.07880302 0.15347840 0.02981362
-0.07657300 0.15359500 0.03117130
-0.06003800 0.15375251 0.03102740
-0.05710762 0.15286799 0.02980471
-0.05551475 0.15142900 0.02880212
-0.07515513 0.15435444 0.02950333
-0.07158689 0.15466851 0.02969495
-0.06823617 0.15474725 0.02976104
-0.06458136 0.15459757 0.02988482
-0.06134785 0.15442558 0.02929433
-0.05884070 0.15423100 0.02852175
-0.06480597 0.03461214 0.03312465
-0.06121382 0.03435376 0.03355221
-0.05798513 0.03438704 0.03296506
-0.05444509 0.03443540 0.03317683
-0.05076289 0.03449090 0.03337993
-0.04717749 0.03453510 0.03313240
-0.04360434 0.03454382 0.03363084
-0.04023964 0.03441933 0.03281702
-0.03690847 0.03446790 0.03335251
-0.03483460 0.03472140 0.03457820
0.01295922 0.03484824 0.03288102
0.01576648 0.03484060 0.03328129
-0.06686513 0.03643516 0.03304324
-0.06645010 0.03539180 0.03428070
-0.03313210 0.03638200 0.03262360
-0.02997696 0.03829728 0.03321896
0.00972566 0.03667017 0.03356745
0.01091770 0.03590860 0.03223700
0.01910362 0.03537897 0.03348380
0.02272925 0.03736247 0.03293985
-0.06550375 0.04048687 0.03310552
-0.02840010 0.03857290 0.03437600
-0.02608850 0.03863962 0.03344735
-0.02277842 0.03867078 0.03275620
-0.01941225 0.03876906 0.03323300
-0.01568029 0.03889081 0.03334731
-0.01207939 0.03892901 0.03305771
-0.00870040 0.03905238 0.03351475
-0.00529245 0.03909953 0.03327360
-0.00187714 0.03916025 0.03302113
0.00152670 0.03932861 0.03344114
0.00530020 0.03939829 0.03307882
0.00805725 0.03876480 0.03270680
0.02435390 0.03906910 0.03380830
0.02604603 0.04051536 0.03285124
-0.06411029 0.04379541 0.03335877
0.02711610 0.04275270 0.03430105
0.02889974 0.04413142 0.03303542
-0.06120417 0.04630187 0.03339130
-0.05761398 0.04785402 0.03286716
0.03033604 0.04679567 0.03353313
0.03223285 0.04800520 0.03201960
0.03799035 0.04844200 0.03185675
0.04055467 0.04793340 0.03195257
0.04271540 0.04824770 0.03168790
-0.05344715 0.04912832 0.03315950
-0.05116623 0.05096872 0.03352088
0.03118530 0.04912320 0.03431390
0.03310394 0.05076635 0.03326258
0.03721543 0.05068809 0.03178338
0.04049567 0.05064956 0.03242635
0.04360875 0.05062142 0.03225848
-0.05023570 0.05446250 0.03312987
0.03430313 0.05389664 0.03417083
0.03654168 0.05364381 0.03208829
0.04049306 0.05416420 0.03205851
0.04369352 0.05401597 0.03238273
0.04635225 0.05450732 0.03204058
-0.05019692 0.05788704 0.03298834
0.03677363 0.05764501 0.03338166
0.04148520 0.05696810 0.03165280
0.04369448 0.05753942 0.03186816
0.04651953 0.05763182 0.03187490
-0.05057669 0.06145483 0.03316777
0.03782560 0.06099196 0.03383892
0.03887940 0.06174705 0.03236480
-0.06325900 0.06605340 0.03215775
-0.06099629 0.06564392 0.03276866
-0.05771418 0.06499770 0.03320809
-0.05435025 0.06440714 0.03334078
-0.05162334 0.06449298 0.03449202
0.03836980 0.06388045 0.03431400
0.03933658 0.06484984 0.03306430
-0.07057385 0.06969530 0.03185185
-0.06779680 0.06901166 0.03321949
-0.06507523 0.06766044 0.03333118
-0.06156011 0.06715288 0.03454760
0.03945969 0.06856865 0.03326972
-0.07425070 0.07297657 0.03233670
-0.07182128 0.07173163 0.03333756
-0.06929106 0.07067233 0.03419947
0.03948781 0.07193868 0.03333648
-0.07725440 0.07647990 0.03165150
-0.07521707 0.07529368 0.03327021
-0.07296591 0.07396300 0.03468100
0.03955092 0.07531131 0.03344574
-0.07865923 0.07946032 0.03300973
-0.07623951 0.07806429 0.03424592
0.03979687 0.07858972 0.03344802
-0.08109473 0.08258024 0.03237826
-0.07951492 0.08238725 0.03419626
0.04003686 0.08204751 0.03336357
-0.08140729 0.08585913 0.03288325
-0.08022430 0.08592623 0.03452137
0.03959619 0.08608476 0.03361089
-0.08151167 0.08922642 0.03288442
-0.08028660 0.08928190 0.03447870
0.03938044 0.08942142 0.03335093
-0.08160404 0.09262008 0.03286156
-0.07992816 0.09293914 0.03456208
0.03829094 0.09280507 0.03440280
0.03924328 0.09255526 0.03280121
-0.08168735 0.09601125 0.03283433
-0.07990192 0.09606148 0.03457525
0.03764087 0.09609573 0.03351277
0.03891580 0.09606265 0.03183825
-0.08131532 0.09897401 0.03237434
-0.07939918 0.09974126 0.03396804
0.03477140 0.10076300 0.03467400
0.03656690 0.09929273 0.03308770
-0.08077450 0.10202800 0.03174330
-0.07875865 0.10343558 0.03322308
-0.07684985 0.10419950 0.03488665
0.03376605 0.10371144 0.03377993
0.03562967 0.10239750 0.03236593
-0.07842235 0.10694569 0.03313435
0.03120350 0.10676350 0.03476645
0.03275307 0.10664500 0.03297606
-0.08596697 0.11147001 0.03363734
-0.08242396 0.11031088 0.03326013
-0.07970953 0.10893825 0.03368007
0.02764060 0.11141600 0.03487250
0.03005301 0.11020572 0.03373502
0.03210610 0.10917266 0.03195030
-0.09105053 0.11481133 0.03380616
-0.08949579 0.11347438 0.03327559
-0.08710350 0.11231000 0.03199740
-0.05366847 0.11539850 0.03442300
-0.05106972 0.11468044 0.03427342
-0.04699777 0.11457463 0.03394880
-0.04350081 0.11458217 0.03409565
-0.04049153 0.11460683 0.03417265
-0.03679218 0.11415310 0.03379270
-0.03317652 0.11435489 0.03382750
-0.02950600 0.11459633 0.03421127
-0.02602610 0.11530875 0.03399035
0.02364142 0.11500649 0.03436188
0.02647138 0.11432030 0.03335948
0.02898258 0.11346672 0.03243227
-0.09235300 0.11746034 0.03330538
-0.05305643 0.11735567 0.03429716
-0.05053029 0.11724100 0.03276180
-0.04699172 0.11661425 0.03197395
-0.04350267 0.11662367 0.03236993
-0.04049840 0.11667333 0.03255353
-0.03699137 0.11664000 0.03202273
-0.03350013 0.11662533 0.03210387
-0.03000165 0.11662175 0.03230827
-0.02581252 0.11727185 0.03249738
-0.02273812 0.11759140 0.03410162
-0.02052120 0.11818100 0.03479580
0.02019140 0.11798200 0.03464770
0.02269508 0.11742123 0.03338556
0.02510990 0.11670050 0.03208650
-0.09288163 0.12084100 0.03328608
-0.05067054 0.12039855 0.03329514
-0.02253520 0.11950534 0.03222753
-0.01921463 0.12010971 0.03340490
-0.01577830 0.12152428 0.03331624
-0.01249583 0.12236767 0.03394733
-0.00999277 0.12239251 0.03474115
0.00349789 0.12244500 0.03479950
0.00500348 0.12239800 0.03492180
0.01255823 0.12173417 0.03432492
0.01580889 0.12090600 0.03353892
0.01921937 0.12053716 0.03286703
0.02202648 0.11984120 0.03213762
-0.09250665 0.12421355 0.03326714
-0.05061653 0.12415023 0.03325128
-0.01248857 0.12370633 0.03231823
-0.00841901 0.12419683 0.03293937
-0.00533987 0.12425210 0.03352528
-0.00202321 0.12441546 0.03338771
0.00156891 0.12435900 0.03335240
0.00511618 0.12451410 0.03317766
0.00872905 0.12412091 0.03329844
0.01187361 0.12360070 0.03287840
0.01451960 0.12309600 0.03222230
-0.09187870 0.12762767 0.03324810
-0.05257310 0.12831099 0.03451490
-0.05102104 0.12742424 0.03322688
0.00077345 0.12608100 0.03158540
-0.09127017 0.12968199 0.03323684
-0.09041423 0.13174166 0.03322735
-0.05362715 0.13148361 0.03386387
-0.05162597 0.13071385 0.03236609
-0.08976229 0.13448316 0.03321253
-0.05673240 0.13486600 0.03435956
-0.05464517 0.13453172 0.03277283
-0.08968981 0.13792267 0.03319460
-0.06042039 0.13840580 0.03441400
-0.05787805 0.13814533 0.03299522
-0.05561220 0.13672701 0.03187640
-0.08911225 0.14201823 0.03315187
-0.05981295 0.14174199 0.03461665
-0.05834976 0.14181499 0.03268533
-0.08801775 0.14508720 0.03312106
-0.08691905 0.14594150 0.03440520
-0.05798751 0.14533009 0.03288265
-0.08566079 0.14848191 0.03285275
-0.08299160 0.14974520 0.03394210
-0.05800476 0.14903744 0.03327093
-0.08120563 0.15115933 0.03319093
-0.07862131 0.15220128 0.03308657
-0.07524017 0.15299429 0.03314129
-0.07169916 0.15312025 0.03362725
-0.06835756 0.15339367 0.03327094
-0.06506202 0.15334649 0.03330911
-0.06136610 0.15276040 0.03344592
-0.05836803 0.15187654 0.03272203
-0.07044990 0.15402199 0.03176610
-0.06671300 0.15408599 0.03157910
-0.06438641 0.03466940 0.03637574
-0.06120715 0.03442346 0.03709136
-0.05751872 0.03443282 0.03613460
-0.05422556 0.03445612 0.03694166
-0.05055971 0.03457202 0.03687850
-0.04716976 0.03458607 0.03646667
-0.04387883 0.03456203 0.03706269
-0.04023031 0.03448435 0.03615183
-0.03670490 0.03448250 0.03715301
-0.03415747 0.03444400 0.03730850
0.00577275 0.03478970 0.03758923
0.00897752 0.03470966 0.03723804
0.01232440 0.03471125 0.03630099
0.01554485 0.03482508 0.03656062
-0.06665587 0.03651028 0.03555993
-0.06601537 0.03622031 0.03730813
0.01672630 0.03501590 0.03783220
0.01921956 0.03576106 0.03696014
0.02179870 0.03740770 0.03646426
-0.06533058 0.04054277 0.03688889
-0.02856120 0.03856155 0.03613185
-0.02589040 0.03892952 0.03708064
-0.02295443 0.03896146 0.03654554
-0.01907321 0.03908720 0.03686410
-0.01551850 0.03913775 0.03704060
-0.01225290 0.03919920 0.03637689
-0.00860289 0.03933737 0.03674785
-0.00479575 0.03936620 0.03628610
-0.00173514 0.03940517 0.03553205
0.02354992 0.03949753 0.03713143
0.02486010 0.04056925 0.03580510
-0.06378069 0.04383775 0.03669645
-0.06286920 0.04451850 0.03826750
0.02596251 0.04337393 0.03695064
0.02813640 0.04480540 0.03509700
-0.06110853 0.04643336 0.03701448
-0.05697682 0.04814122 0.03682246
-0.05465245 0.04875850 0.03724570
0.02677293 0.04680808 0.03756795
0.02878268 0.04738418 0.03608205
-0.05337170 0.04910350 0.03743583
-0.05077009 0.04974956 0.03635385
-0.04737730 0.05098120 0.03766061
-0.03547400 0.05192660 0.03832280
-0.03325676 0.05120676 0.03806074
-0.03012468 0.05217490 0.03740492
-0.02766360 0.05226180 0.03830690
0.02740090 0.05024757 0.03806427
0.02982241 0.05062485 0.03674123
0.03199540 0.05202130 0.03549990
-0.04748797 0.05423257 0.03663803
-0.03548260 0.05403415 0.03841185
-0.03348000 0.05397067 0.03765030
-0.02990958 0.05461832 0.03659194
-0.02706468 0.05426079 0.03764200
0.03088357 0.05402517 0.03802976
0.03283974 0.05431836 0.03625551
-0.04729447 0.05770571 0.03683696
-0.03292854 0.05731815 0.03797349
-0.02999749 0.05777835 0.03697995
-0.02696404 0.05763439 0.03775653
0.03397537 0.05749385 0.03727444
0.03558793 0.05869753 0.03609544
-0.04909000 0.06280070 0.03528450
-0.04754200 0.06139925 0.03681698
-0.03250270 0.06038550 0.03849430
-0.02999811 0.06100773 0.03765559
-0.02748690 0.06100750 0.03760200
0.03490680 0.06125510 0.03806670
0.03622073 0.06122227 0.03645601
-0.05363150 0.06570370 0.03538327
-0.05028866 0.06525950 0.03590994
-0.04790600 0.06497113 0.03745987
-0.03150470 0.06319780 0.03849610
-0.02937114 0.06438740 0.03812020
-0.02749235 0.06387524 0.03824520
0.03676016 0.06452075 0.03671697
-0.06375463 0.06928203 0.03583805
-0.06105103 0.06881697 0.03637846
-0.05767155 0.06819791 0.03693705
-0.05411325 0.06754188 0.03703866
-0.05081953 0.06785779 0.03743532
-0.04892430 0.06751170 0.03834880
0.03688322 0.06841470 0.03666121
-0.07127865 0.07333480 0.03558390
-0.06827815 0.07187107 0.03606899
-0.06493600 0.07145130 0.03723359
-0.06128480 0.07085983 0.03809520
0.03646334 0.07146297 0.03701991
-0.07385850 0.07626940 0.03552020
-0.07151671 0.07552712 0.03688952
-0.06833635 0.07431512 0.03782736
0.03710766 0.07541148 0.03695816
-0.07501591 0.07872100 0.03594896
-0.07236746 0.07830440 0.03791952
0.03711743 0.07877926 0.03701012
0.03881320 0.07941660 0.03508910
-0.07792942 0.08256812 0.03584667
-0.07539150 0.08177436 0.03738407
0.03703238 0.08212958 0.03690304
0.03878463 0.08210133 0.03506260
-0.07856194 0.08599332 0.03637688
-0.07642358 0.08569707 0.03812205
0.03713683 0.08588864 0.03672656
-0.07835556 0.08936395 0.03677600
0.03692469 0.08913156 0.03716288
-0.07828183 0.09258261 0.03632399
-0.07681444 0.09277033 0.03795763
0.03494850 0.09421630 0.03840620
0.03676635 0.09285858 0.03660975
-0.07792442 0.09609260 0.03613253
-0.07612148 0.09613922 0.03786862
0.03424833 0.09641367 0.03798363
0.03582427 0.09616212 0.03615921
-0.07779893 0.09900609 0.03568354
-0.07530882 0.09975521 0.03735114
-0.07323410 0.10084800 0.03836520
0.03113820 0.10080900 0.03817240
0.03331640 0.09947607 0.03693252
0.03524730 0.09880185 0.03533260
-0.07718420 0.10213800 0.03521510
-0.07492460 0.10337814 0.03661212
-0.07171060 0.10354199 0.03809326
0.02753610 0.10477000 0.03821930
0.03000290 0.10355163 0.03716420
0.03229856 0.10317620 0.03563084
-0.07788200 0.10822600 0.03555395
-0.07503353 0.10699517 0.03687363
-0.07156514 0.10676268 0.03743591
-0.06862991 0.10710412 0.03785627
-0.06499837 0.10837676 0.03827450
-0.03980397 0.10794801 0.03804533
-0.03700086 0.10768288 0.03791112
-0.03351910 0.10841000 0.03825040
0.02683882 0.10675626 0.03808095
0.02933205 0.10677662 0.03644010
-0.08796646 0.11186050 0.03661560
-0.08581638 0.11095575 0.03693321
-0.08213097 0.10991838 0.03682568
-0.07901602 0.10895016 0.03740232
-0.07688290 0.10852400 0.03733500
-0.07113108 0.10922160 0.03803686
-0.06826692 0.10990433 0.03804230
-0.06503060 0.11015328 0.03770840
-0.06154243 0.11040350 0.03739937
-0.05799770 0.11044875 0.03729939
-0.05449805 0.11046783 0.03729197
-0.05099969 0.11047850 0.03745715
-0.04749991 0.11050250 0.03770260
-0.04399238 0.11051099 0.03761026
-0.04047927 0.11049467 0.03696370
-0.03699560 0.11044050 0.03650605
-0.03322157 0.11036801 0.03697530
-0.02979030 0.11057515 0.03724765
-0.02676778 0.11087125 0.03772018
0.01949217 0.11118600 0.03806010
0.02266950 0.11063786 0.03758479
0.02613136 0.10995381 0.03683609
0.02868610 0.10922100 0.03580687
-0.09129038 0.11474850 0.03679360
-0.08972295 0.11313600 0.03660981
-0.06405455 0.11236350 0.03794200
-0.06123033 0.11358790 0.03697368
-0.05767049 0.11425672 0.03633084
-0.05436807 0.11341776 0.03556363
-0.05049877 0.11252866 0.03583873
-0.04750050 0.11255866 0.03574723
-0.04399788 0.11255800 0.03570885
-0.04048793 0.11254633 0.03559420
-0.03798790 0.11253300 0.03522420
-0.03251367 0.11254167 0.03530303
-0.02950863 0.11253733 0.03569207
-0.02601548 0.11325412 0.03596012
-0.02265682 0.11421525 0.03701552
-0.01971008 0.11490400 0.03765986
-0.01699495 0.11544900 0.03797200
0.01221156 0.11483800 0.03792290
0.01587126 0.11417950 0.03757574
0.01918926 0.11419899 0.03677901
0.02249252 0.11349513 0.03578964
0.02531640 0.11272800 0.03503670
-0.09263898 0.11748159 0.03680351
-0.05711260 0.11731075 0.03795130
-0.05468070 0.11773528 0.03615004
-0.02150640 0.11676500 0.03552660
-0.01900293 0.11726817 0.03611912
-0.01576187 0.11737813 0.03697683
-0.01275162 0.11794200 0.03784095
-0.00899602 0.11830400 0.03820515
-0.00649912 0.11833100 0.03845600
0.00549122 0.11824634 0.03793810
0.00905141 0.11723700 0.03774059
0.01220699 0.11736025 0.03672496
0.01578476 0.11738157 0.03609122
0.01900487 0.11738300 0.03536055
-0.09317586 0.12086625 0.03678507
-0.05425905 0.12045067 0.03691505
-0.05214650 0.12120700 0.03505690
-0.01548480 0.11959734 0.03575757
-0.01249193 0.12032234 0.03608957
-0.00879216 0.12075920 0.03644052
-0.00548935 0.12103466 0.03669067
-0.00199020 0.12105358 0.03696075
0.00181144 0.12077045 0.03670165
0.00564248 0.12063272 0.03616858
0.00868454 0.12090939 0.03595611
0.01182384 0.11971743 0.03575816
0.01449540 0.11957200 0.03523890
-0.09273735 0.12423358 0.03676685
-0.05384883 0.12408543 0.03705686
-0.05209430 0.12335800 0.03517015
-0.00125147 0.12285400 0.03530000
-0.09181744 0.12763838 0.03674702
-0.05624030 0.12834600 0.03799430
-0.05450811 0.12754343 0.03659302
-0.09108957 0.12968500 0.03623577
-0.09039282 0.13152167 0.03689189
-0.06035155 0.13252400 0.03820445
-0.05742624 0.13142239 0.03716240
-0.05513323 0.13067116 0.03579193
-0.08989866 0.13449888 0.03671080
-0.06338560 0.13530999 0.03819180
-0.06132663 0.13468671 0.03716900
-0.05832534 0.13439633 0.03586408
-0.08941937 0.13800877 0.03676877
-0.06343410 0.13815424 0.03770068
-0.06207502 0.13797367 0.03599491
-0.08851810 0.14165951 0.03635336
-0.08714224 0.14326200 0.03751480
-0.06340605 0.14176050 0.03822150
-0.06152332 0.14176387 0.03655673
-0.08580351 0.14530250 0.03684032
-0.06341793 0.14535400 0.03823860
-0.06121045 0.14537732 0.03704067
-0.05937380 0.14536767 0.03528860
-0.08475260 0.14730801 0.03574143
-0.08189539 0.14846499 0.03687427
-0.07925744 0.14962199 0.03720728
-0.07539678 0.15036374 0.03768035
-0.06899920 0.15031099 0.03840440
-0.06454079 0.14945957 0.03767417
-0.06143260 0.14892189 0.03669260
-0.05932025 0.14896050 0.03540690
-0.07766200 0.15131150 0.03538410
-0.07472257 0.15151750 0.03600797
-0.07193240 0.15145633 0.03659378
-0.06853710 0.15156850 0.03664042
-0.06471834 0.15157029 0.03604772
-0.06171962 0.15116501 0.03557798
-0.06356067 0.03475027 0.03947143
-0.06116262 0.03454303 0.04056536
-0.05768150 0.03446199 0.03997363
-0.05421030 0.03450282 0.04025532
-0.05072971 0.03455674 0.04052057
-0.04718513 0.03458544 0.03982694
-0.04386868 0.03465140 0.04060489
-0.04039762 0.03466340 0.03988297
-0.03666509 0.03460118 0.04044123
-0.03332816 0.03454810 0.04032070
-0.03030885 0.03451145 0.04099745
-0.00809599 0.03474390 0.04196000
-0.00429920 0.03489090 0.04081890
-0.00161022 0.03473466 0.04115334
0.00209064 0.03473207 0.03988083
0.00520814 0.03465403 0.04029228
0.00854997 0.03462144 0.04036676
0.01226331 0.03470222 0.03977167
0.01467505 0.03496220 0.04016675
-0.06497007 0.03662216 0.04010848
-0.04040145 0.03512095 0.04181955
-0.00891681 0.03510820 0.04146850
-0.00525238 0.03500870 0.04051810
-0.00150449 0.03507310 0.03943530
0.01634892 0.03523970 0.04026353
0.01947204 0.03692026 0.04017400
-0.06392279 0.04034118 0.04013516
-0.03913650 0.04066820 0.04181020
-0.02180270 0.03915760 0.03879705
-0.01920070 0.03927527 0.03922980
-0.01604743 0.03947153 0.03970667
-0.01234527 0.03945470 0.03869250
0.02068103 0.03967980 0.04162487
0.02224451 0.04010196 0.04009803
-0.06337220 0.04322000 0.03879830
-0.06204484 0.04382551 0.04063331
-0.04649810 0.04517040 0.04192790
-0.04349380 0.04517393 0.04164927
-0.04005420 0.04368471 0.04154515
-0.03787140 0.04411427 0.04130993
0.02281913 0.04360117 0.04062894
0.02468447 0.04356577 0.03890957
-0.06058717 0.04594273 0.04017653
-0.05808007 0.04707927 0.04013400
-0.05476791 0.04802183 0.03958417
-0.05089205 0.04734069 0.04023088
-0.04721181 0.04722936 0.04014071
-0.04378637 0.04706863 0.04045494
-0.04049503 0.04716475 0.04036462
-0.03688476 0.04698158 0.04015587
-0.03420310 0.04826690 0.04068710
0.02007550 0.04718253 0.04165720
0.02257668 0.04699832 0.04029085
0.02499603 0.04725590 0.03881230
-0.04651330 0.04960290 0.03863260
-0.04370740 0.05045358 0.03922505
-0.04049769 0.05061342 0.03945855
-0.03712315 0.05045140 0.03906037
-0.03315256 0.04971782 0.03975274
-0.03000330 0.05093335 0.04066010
-0.02632223 0.05197367 0.04015035
-0.02444890 0.05218700 0.04137140
0.02039070 0.04904380 0.04153310
0.02291473 0.05005484 0.04071202
0.02570838 0.05089220 0.03928675
-0.04372671 0.05418279 0.03905400
-0.04049862 0.05413888 0.03954627
-0.03748217 0.05409540 0.03908295
-0.02519679 0.05435288 0.04003893
-0.02405605 0.05443860 0.04169730
0.02650700 0.05397771 0.04078040
0.02917775 0.05450055 0.03937249
-0.04391706 0.05755712 0.03938671
-0.04050031 0.05771618 0.04020043
-0.03699145 0.05766824 0.03968262
-0.03414337 0.05852143 0.03884957
-0.02531593 0.05785724 0.04002376
-0.02417833 0.05793576 0.04170936
0.02773580 0.05708570 0.04171890
0.02990428 0.05780135 0.04046529
0.03245362 0.05809895 0.03905866
-0.04555205 0.06225335 0.03886105
-0.04389396 0.06132186 0.03987445
-0.04050122 0.06130652 0.04103960
-0.03699473 0.06128486 0.04081161
-0.03370000 0.06129511 0.03926218
-0.02580617 0.06129935 0.03977906
-0.02437335 0.06144440 0.04180320
0.03004570 0.06109226 0.04122934
0.03297301 0.06126132 0.03966913
-0.04613133 0.06525183 0.03888303
-0.04384483 0.06510165 0.04035596
-0.04049354 0.06486695 0.04150329
-0.03699700 0.06485448 0.04140866
-0.03350321 0.06472687 0.03992003
-0.03116010 0.06556863 0.03889710
-0.02604387 0.06472625 0.04024068
0.03052160 0.06462247 0.04141901
0.03314115 0.06467808 0.03994465
0.03525165 0.06534020 0.03859965
-0.05506400 0.06987510 0.03853900
-0.04976100 0.06911200 0.03856200
-0.04726288 0.06843366 0.03967467
-0.04403659 0.06820121 0.04092025
-0.04049745 0.06838959 0.04170739
-0.03700032 0.06838890 0.04164960
-0.03300263 0.06828681 0.04046335
-0.02949762 0.06816909 0.03911645
-0.02681798 0.06817652 0.04066294
0.03019953 0.06864623 0.04157367
0.03309528 0.06800915 0.03989547
0.03519180 0.06735010 0.03852920
-0.06441267 0.07318187 0.03894103
-0.06120134 0.07242793 0.03952432
-0.05781637 0.07193683 0.03997362
-0.05400864 0.07193703 0.04005281
-0.05086261 0.07204289 0.04039510
-0.04763272 0.07182428 0.04096385
-0.04515360 0.07098293 0.04177754
-0.04029706 0.07107396 0.04188492
-0.03678307 0.07131479 0.04190523
-0.03300626 0.07183836 0.04092222
-0.02950711 0.07175360 0.04004833
-0.02741450 0.07122242 0.04110467
0.03060924 0.07161789 0.04142240
0.03317613 0.07138374 0.04004131
0.03529990 0.07275230 0.03873290
-0.06793882 0.07590377 0.03894250
-0.06473468 0.07533793 0.04012220
-0.06144542 0.07465564 0.04108562
-0.05799665 0.07471970 0.04188570
-0.05499865 0.07470675 0.04183650
-0.03624922 0.07507762 0.04193988
-0.03350313 0.07539032 0.04145862
-0.02997559 0.07528864 0.04104301
0.03138610 0.07408970 0.04187010
0.03348615 0.07545697 0.04052156
0.03542103 0.07545300 0.03892354
-0.07081535 0.07854247 0.03898288
-0.06831400 0.07850470 0.04031526
-0.06540532 0.07792947 0.04124393
-0.06249280 0.07754090 0.04193450
-0.03551040 0.07753980 0.04190020
-0.03300230 0.07889620 0.04143923
-0.03057626 0.07830420 0.04152456
0.03415557 0.07886045 0.04064237
0.03551325 0.07882854 0.03907935
-0.07401675 0.08330550 0.03897505
-0.07167185 0.08193371 0.03997771
-0.06886173 0.08146977 0.04143395
-0.03250090 0.08243083 0.04177167
0.03384275 0.08234093 0.04085234
0.03539230 0.08217413 0.03892530
-0.07477808 0.08635630 0.03939840
-0.07174057 0.08593008 0.04105206
-0.03249230 0.08456150 0.04191490
0.03414150 0.08558032 0.04067082
0.03543720 0.08554125 0.03901615
-0.07496884 0.08944179 0.03973714
-0.07175960 0.08946406 0.04153674
0.03420515 0.08895077 0.04078977
0.03553716 0.08891783 0.03919430
-0.07493558 0.09281597 0.03960283
-0.07208229 0.09277870 0.04146415
0.03116910 0.09424490 0.04170290
0.03334870 0.09293190 0.04045482
0.03527010 0.09224320 0.03883780
-0.07441442 0.09604339 0.03941034
-0.07177301 0.09642588 0.04104686
-0.06847937 0.09726436 0.04185833
-0.04049730 0.09727150 0.04198960
0.03059734 0.09636438 0.04123466
0.03274683 0.09599447 0.03960542
-0.07377020 0.09884185 0.03895610
-0.07157502 0.09988956 0.03979890
-0.06813340 0.09991203 0.04109192
-0.06582790 0.10101634 0.04162307
-0.04749680 0.10147700 0.04178650
-0.04038321 0.09976275 0.04151863
-0.03732895 0.10100117 0.04143030
0.02698890 0.10037140 0.04152403
0.02964897 0.09951664 0.04040186
0.03168960 0.09883575 0.03897195
-0.07050680 0.10274500 0.03894740
-0.06821216 0.10358585 0.03954616
-0.06474233 0.10321637 0.04102038
-0.06149595 0.10359633 0.04139393
-0.05829680 0.10403540 0.04154736
-0.05412085 0.10342888 0.04141774
-0.05105275 0.10303934 0.04105656
-0.04727742 0.10320744 0.04129317
-0.04361517 0.10326662 0.04150889
-0.04034558 0.10326172 0.04033254
-0.03700174 0.10353612 0.04008819
-0.03364587 0.10328529 0.04103564
-0.03032952 0.10384217 0.04156565
-0.02700185 0.10434450 0.04175155
0.02341483 0.10437401 0.04104810
0.02616567 0.10330992 0.04004398
0.02884605 0.10212900 0.03924280
-0.06683510 0.10605200 0.03890273
-0.06449385 0.10630599 0.03942402
-0.06149520 0.10701466 0.03943636
-0.05799788 0.10704499 0.03975066
-0.05449671 0.10706144 0.03981894
-0.05099853 0.10703843 0.03932788
-0.04749835 0.10705188 0.03984178
-0.04399016 0.10708368 0.03999756
-0.04079448 0.10658684 0.03913125
-0.03700215 0.10559800 0.03886218
-0.03301042 0.10651500 0.03936090
-0.02970191 0.10705570 0.03974091
-0.02662115 0.10691576 0.04051155
-0.02329402 0.10686439 0.04161356
-0.02049030 0.10715400 0.04193800
0.00551469 0.10684700 0.04177263
0.00899964 0.10779316 0.04085084
0.01190876 0.10791800 0.04103012
0.01649336 0.10792540 0.04096660
0.01958625 0.10748675 0.04052518
0.02258583 0.10700855 0.03961273
0.02489134 0.10670640 0.03886250
-0.08770430 0.11198400 0.04014325
-0.08574326 0.11120538 0.04032069
-0.08221620 0.11024766 0.04030089
-0.07862168 0.10943250 0.04045327
-0.07531803 0.10911443 0.04002207
-0.07174177 0.10968567 0.04024572
-0.06846538 0.11070900 0.03996408
-0.02518167 0.10965083 0.03940090
-0.02250830 0.10991801 0.04009640
-0.01929896 0.10993890 0.04077830
-0.01604707 0.11027288 0.04129851
-0.01248313 0.11137799 0.04166970
0.00560099 0.11003316 0.04151737
0.00875491 0.11033849 0.04018257
0.01250230 0.11056583 0.03958245
0.01594289 0.11032800 0.03959864
0.01949633 0.10982367 0.03903427
-0.09133755 0.11540100 0.04016885
-0.08961864 0.11350640 0.04028392
-0.06458073 0.11329786 0.04012780
-0.06237523 0.11538967 0.03958150
-0.02149930 0.11266500 0.03881380
-0.01890380 0.11325560 0.03900968
-0.01562129 0.11358650 0.03952251
-0.01248648 0.11344134 0.04048587
-0.00899169 0.11348026 0.04115370
-0.00549026 0.11347517 0.04131847
-0.00232528 0.11372801 0.04162787
0.00220536 0.11358486 0.04135620
0.00561946 0.11374027 0.04058746
0.00853880 0.11380636 0.03954682
0.01199830 0.11265600 0.03890473
0.01499880 0.11263250 0.03864335
-0.09225732 0.11734480 0.04038726
-0.06340080 0.11552700 0.04172420
-0.06116644 0.11759987 0.04045856
-0.05825752 0.11800600 0.03894493
-0.01229712 0.11607840 0.03896714
-0.00898802 0.11622426 0.03965157
-0.00536532 0.11675600 0.03963408
-0.00199299 0.11694442 0.03993051
0.00199347 0.11692533 0.03965919
0.00529344 0.11635800 0.03933322
-0.09298797 0.12075814 0.04053843
-0.06049680 0.12051700 0.04146875
-0.05791604 0.12053550 0.03991390
-0.05576370 0.12126400 0.03865160
-0.09250776 0.12435160 0.04039953
-0.06010600 0.12443525 0.04161422
-0.05765979 0.12410775 0.04031530
-0.05561526 0.12411466 0.03888686
-0.09150849 0.12749520 0.04010708
-0.09092400 0.12827399 0.04097480
-0.06080270 0.12784150 0.04106118
-0.05792127 0.12753172 0.03957536
-0.09012478 0.13102509 0.04039653
-0.06378206 0.13167660 0.04114270
-0.06147826 0.13084964 0.03968549
-0.05870670 0.12973499 0.03882065
-0.08913895 0.13481335 0.04035214
-0.06443045 0.13463967 0.04017762
-0.06297240 0.13389701 0.03880900
-0.08836664 0.13803728 0.04001541
-0.08726440 0.13920601 0.04129520
-0.06477641 0.13834144 0.04036393
-0.08793530 0.14054701 0.03907840
-0.08603290 0.14207384 0.04021241
-0.08343430 0.14335300 0.04159130
-0.06494898 0.14179674 0.04038605
-0.08457945 0.14467299 0.03916395
-0.08241719 0.14548101 0.04011125
-0.07989025 0.14610550 0.04149450
-0.06739353 0.14598733 0.04144937
-0.06530666 0.14538726 0.03985577
-0.08104720 0.14739799 0.03908360
-0.07858179 0.14775424 0.04024312
-0.07538322 0.14877588 0.04003924
-0.07164515 0.14869446 0.04037955
-0.06846479 0.14854190 0.04000656
-0.06593015 0.14828400 0.03909760
-0.06072785 0.03473885 0.04291825
-0.05773734 0.03461399 0.04342233
-0.05413169 0.03463236 0.04345646
-0.05073375 0.03479280 0.04410852
-0.04774515 0.03479662 0.04297780
-0.04465610 0.03499990 0.04274860
-0.03601810 0.03478707 0.04304253
-0.03315383 0.03480512 0.04413684
-0.02988609 0.03473501 0.04339827
-0.02634354 0.03476935 0.04437626
-0.02267597 0.03484770 0.04409122
-0.01914940 0.03481343 0.04487307
-0.01588773 0.03478675 0.04427382
-0.01196876 0.03478416 0.04396320
-0.00886569 0.03474617 0.04388132
-0.00517424 0.03467038 0.04365261
-0.00159135 0.03468002 0.04412843
0.00166605 0.03473000 0.04347407
0.00504241 0.03475530 0.04322362
0.00874049 0.03480216 0.04298540
0.01104475 0.03479670 0.04226890
-0.06333687 0.03676633 0.04254387
-0.06126114 0.03638168 0.04420815
-0.05715195 0.03503515 0.04512905
-0.05556270 0.03517360 0.04535770
-0.04684816 0.03621580 0.04488871
-0.04381565 0.03640855 0.04401820
-0.03988737 0.03648289 0.04287369
-0.03732102 0.03635600 0.04425912
-0.01265070 0.03505560 0.04252630
0.00160174 0.03512750 0.04541750
0.00580512 0.03509150 0.04452020
0.00902028 0.03594257 0.04470895
0.01250491 0.03635209 0.04392074
0.01560736 0.03690417 0.04336831
0.01794467 0.03745797 0.04243360
-0.06128172 0.04010411 0.04386458
-0.04964625 0.04098295 0.04524175
-0.04750884 0.04024264 0.04472990
-0.04391980 0.04031994 0.04371995
-0.03994750 0.03997962 0.04266502
-0.03757070 0.04004533 0.04427428
0.00862772 0.04005902 0.04528587
0.01202789 0.04034496 0.04482767
0.01559379 0.04033483 0.04419804
0.01891005 0.04009418 0.04285015
-0.06088359 0.04294427 0.04303037
-0.05803294 0.04375355 0.04426965
-0.05391911 0.04471560 0.04425627
-0.05072169 0.04397582 0.04410594
-0.04739480 0.04372003 0.04328185
-0.04399280 0.04330912 0.04282689
-0.04149265 0.04310355 0.04235645
-0.03663299 0.04323520 0.04383042
-0.03437600 0.04483050 0.04518750
0.00649466 0.04271980 0.04543610
0.00877713 0.04354494 0.04509820
0.01215513 0.04390608 0.04452325
0.01593059 0.04345890 0.04416713
0.01949980 0.04358375 0.04285008
-0.05745597 0.04618247 0.04233027
-0.05399820 0.04658345 0.04213500
-0.03538395 0.04606325 0.04262830
-0.03327599 0.04727332 0.04356043
-0.03033537 0.04827180 0.04459653
0.01243862 0.04628028 0.04479106
0.01563029 0.04718039 0.04387496
0.01853613 0.04760668 0.04258227
-0.02927340 0.04996702 0.04348897
-0.02670803 0.05039712 0.04423520
-0.02294730 0.05146396 0.04360093
0.01652910 0.04950800 0.04475637
0.01966272 0.05081047 0.04403486
0.02210905 0.05207397 0.04319640
-0.02243704 0.05439135 0.04398251
0.02312688 0.05408935 0.04382239
0.02513590 0.05494705 0.04233185
-0.02280905 0.05790560 0.04369486
0.02376074 0.05723474 0.04477282
0.02601336 0.05791511 0.04339476
0.02813130 0.05919620 0.04231680
-0.02278762 0.06131348 0.04399981
0.02412755 0.06119640 0.04533365
0.02637523 0.06122842 0.04419364
0.02868970 0.06146323 0.04255883
-0.02487833 0.06595293 0.04263877
-0.02339621 0.06427488 0.04398521
0.02407973 0.06455290 0.04528524
0.02635261 0.06459338 0.04418170
0.02895628 0.06462380 0.04267660
-0.02531924 0.06870018 0.04353554
-0.02392294 0.06703087 0.04496333
