-0.01386271 0.12883037 0.00619083
-0.00996165 0.12971045 0.00616453
-0.00607861 0.13036460 0.00599982
-0.00211097 0.13092330 0.00603603
0.00190772 0.13126172 0.00596655
0.00593542 0.13121563 0.00603588
0.01013804 0.13058600 0.00592430
0.01401548 0.12944624 0.00592059
0.01677788 0.12830380 0.00615490
-0.08963146 0.13363425 0.00573095
-0.04838947 0.13483399 0.00548199
-0.04719503 0.13295434 0.00626064
-0.08857310 0.13638450 0.00670609
-0.08729314 0.13801520 0.00550101
-0.04921374 0.13782462 0.00591016
-0.08556972 0.14185999 0.00568136
-0.04952742 0.14165059 0.00589648
-0.08511283 0.14600635 0.00617279
-0.08387097 0.14598267 0.00416021
-0.04818747 0.14459850 0.00593256
-0.04610994 0.14654170 0.00594245
-0.04378300 0.14771900 0.00491206
-0.08502384 0.15014721 0.00634256
-0.08330671 0.15070841 0.00442370
-0.04468925 0.14955249 0.00713263
-0.04233624 0.15010913 0.00526939
-0.08431420 0.15235600 0.00793113
-0.08134410 0.15303667 0.00596887
-0.07782221 0.15439050 0.00597144
-0.07380730 0.15541476 0.00590306
-0.06986134 0.15553449 0.00569454
-0.06600671 0.15518892 0.00624335
-0.06204259 0.15533835 0.00600623
-0.04465215 0.15397350 0.00770264
-0.04188977 0.15350892 0.00622779
-0.03914438 0.15420859 0.00468157
-0.05760682 0.15835471 0.00548598
-0.05528190 0.15934449 0.00693930
-0.04509329 0.15807760 0.00689557
-0.04232847 0.15782811 0.00517809
-0.03818484 0.15718828 0.00482639
-0.03591220 0.15804800 0.00410154
-0.05376624 0.16106184 0.00543973
-0.05010478 0.16185731 0.00635318
-0.04600396 0.16227208 0.00622284
-0.04259537 0.16230889 0.00496595
-0.04856080 0.16400000 0.00493162
-0.04596034 0.16522580 0.00464468
-0.04250483 0.16524333 0.00447133
-0.07206600 0.03534690 0.00817017
-0.06993195 0.03472372 0.00983401
-0.06572615 0.03383566 0.00999530
-0.06201288 0.03367843 0.00994620
-0.05763817 0.03357565 0.01010439
-0.05412143 0.03354795 0.00985385
-0.04989763 0.03475792 0.00912839
-0.04600360 0.03570523 0.00816407
-0.04176195 0.03540128 0.00878617
-0.03777136 0.03442330 0.00979350
-0.03405626 0.03377670 0.00992667
-0.03100170 0.03399220 0.01095300
-0.00062298 0.03540696 0.01004429
0.00210772 0.03429951 0.00994335
0.00484452 0.03406553 0.01030244
0.02252451 0.03509721 0.00941375
0.02582053 0.03454367 0.01024712
0.02986134 0.03493568 0.01057493
0.03323845 0.03553408 0.01071359
-0.07226330 0.03677380 0.00828560
-0.07005370 0.03800064 0.00998689
-0.06765535 0.03960740 0.01140275
-0.03878955 0.03618495 0.01100505
-0.02605182 0.03799495 0.00996190
-0.02197550 0.03815413 0.00994335
-0.01774918 0.03824101 0.01042185
-0.01408689 0.03833560 0.00957066
-0.00997433 0.03841743 0.01033313
-0.00614214 0.03847381 0.00995008
-0.00263892 0.03741640 0.01000109
0.02229990 0.03604410 0.01083030
0.03515580 0.03625760 0.01044320
0.03785168 0.03746607 0.00987311
0.04151620 0.03933610 0.01019005
-0.06891678 0.04124573 0.00911063
-0.06650766 0.04271355 0.01020239
-0.06333520 0.04360310 0.01196530
0.04365090 0.04038310 0.00924323
0.04553884 0.04129877 0.01019585
0.04866013 0.04311700 0.00973242
-0.06514356 0.04484805 0.00878712
-0.06219776 0.04549812 0.00983645
-0.05810389 0.04686860 0.01018999
-0.05595250 0.04734420 0.01156590
0.05093972 0.04498272 0.00941944
0.05354477 0.04717341 0.00992260
-0.05651145 0.04947500 0.00899334
-0.05462372 0.05028019 0.01085704
0.05580974 0.04940070 0.00919741
0.05681754 0.05058996 0.00998902
-0.05445649 0.05389786 0.01017258
0.05835636 0.05380654 0.00967770
-0.06485580 0.05972415 0.01076721
-0.06228790 0.05898258 0.01005168
-0.05795461 0.05782269 0.00997001
-0.05496874 0.05630334 0.01029705
0.05955565 0.05716533 0.00933778
0.06033317 0.05906832 0.00999523
-0.07227060 0.06353940 0.00948258
-0.07001463 0.06192138 0.01025244
-0.06672182 0.06048803 0.00956139
0.06071470 0.06233334 0.00964721
-0.07632470 0.06790890 0.01106140
-0.07460828 0.06598132 0.01004240
0.05966520 0.06733700 0.00846568
0.06031217 0.06615730 0.01003038
-0.07849375 0.06978952 0.00994010
0.05853414 0.07037629 0.00983797
-0.08159979 0.07346066 0.01003564
0.04706239 0.07401069 0.00938192
0.04990829 0.07298782 0.00999191
0.05408202 0.07294089 0.00980829
0.05665137 0.07234407 0.01101650
-0.08500385 0.07848967 0.01001347
-0.08310735 0.07628658 0.01002236
0.04643479 0.07771742 0.00975092
-0.08637410 0.08194968 0.00999974
0.04628858 0.08204642 0.00967691
-0.08852681 0.08703095 0.01030530
-0.08720412 0.08515506 0.00964667
0.04595603 0.08622051 0.00967042
-0.08917408 0.09018648 0.00995682
0.04564878 0.09041652 0.00966565
-0.08893885 0.09422946 0.00993599
0.04491340 0.09458390 0.00966173
-0.08909584 0.09829363 0.00991395
0.04377900 0.09875040 0.00966326
0.04422135 0.09735990 0.00966252
-0.08851415 0.10181374 0.01027445
-0.08781239 0.10330425 0.00913955
0.04267927 0.10149533 0.00966238
-0.08677379 0.10631493 0.00987074
0.04076906 0.10563492 0.00966373
-0.08861302 0.11187650 0.00985419
-0.08649878 0.10974263 0.00985586
0.03821174 0.10979243 0.00996718
-0.09222835 0.11599350 0.01081830
-0.09085497 0.11434200 0.00963270
0.03493079 0.11431290 0.00989586
0.03630494 0.11240432 0.01023873
-0.09250037 0.11811071 0.01002033
-0.09189510 0.11731900 0.00831437
0.03109795 0.11887700 0.00994357
0.03284110 0.11702929 0.01021763
-0.09277721 0.12151001 0.00992000
-0.09191110 0.12001500 0.00829626
0.02667119 0.12277455 0.00985480
0.02888365 0.12095949 0.01018098
-0.09263372 0.12532908 0.00990247
-0.09180490 0.12680399 0.00826817
-0.03633230 0.12786201 0.01017695
-0.03403295 0.12719175 0.01003602
-0.03014608 0.12594329 0.01010477
-0.02606597 0.12605134 0.01010504
-0.02186822 0.12708934 0.00984764
-0.01933397 0.12772501 0.00980092
0.01916225 0.12743901 0.00959783
0.02196846 0.12596408 0.01009876
0.02460314 0.12430540 0.01019492
-0.09230500 0.12911068 0.01058391
-0.09161218 0.13000999 0.00891364
-0.04492743 0.13100457 0.00985550
-0.04232034 0.12920000 0.01005945
-0.03862546 0.12834151 0.00992974
-0.01745697 0.12826033 0.01048405
-0.01415323 0.12907444 0.00992029
-0.00998690 0.13002056 0.01000055
-0.00619287 0.13068776 0.01009366
-0.00219632 0.13123861 0.01002153
0.00184439 0.13157977 0.01005013
0.00591397 0.13157681 0.00991850
0.00995001 0.13099645 0.00996881
0.01410945 0.12973537 0.01007821
0.01724404 0.12842114 0.01031647
-0.09067386 0.13366374 0.00972242
-0.04818600 0.13557900 0.00839494
-0.04703908 0.13393179 0.01007515
-0.08869751 0.13750830 0.00990523
-0.08762380 0.13914400 0.00869964
-0.04861835 0.13785911 0.00989912
-0.08828423 0.14192866 0.01117977
-0.08712745 0.14189899 0.00918179
-0.04938750 0.14168608 0.00990498
-0.08895043 0.14623401 0.01031587
-0.08718857 0.14569625 0.00846834
-0.04937600 0.14613090 0.01029435
-0.04763843 0.14724468 0.00871057
-0.08877312 0.14943451 0.01071372
-0.08680808 0.15074217 0.00946999
-0.04918775 0.14995582 0.01117772
-0.04671197 0.15004100 0.00899216
-0.08520087 0.15269299 0.01054068
-0.08193992 0.15393533 0.01019514
-0.07798336 0.15508699 0.01010583
-0.07428713 0.15569888 0.00978235
-0.07016104 0.15582462 0.00922482
-0.06584232 0.15572108 0.01018288
-0.06195719 0.15573151 0.00998068
-0.05816757 0.15588701 0.01132947
-0.05323370 0.15524350 0.01167800
-0.04981196 0.15369800 0.01086411
-0.04657276 0.15346390 0.00910177
-0.07284040 0.15611100 0.01190630
-0.07021017 0.15605901 0.01138967
-0.05794496 0.15650943 0.00932945
-0.05382462 0.15749249 0.00968450
-0.04999483 0.15787774 0.00924715
-0.04708760 0.15742685 0.00853496
-0.06879670 0.03546820 0.01266387
-0.06623952 0.03479987 0.01414423
-0.06189017 0.03383891 0.01410811
-0.05807565 0.03364830 0.01381867
-0.05419884 0.03355049 0.01403706
-0.03639725 0.03558175 0.01293725
-0.03442562 0.03426416 0.01392404
-0.03101175 0.03395092 0.01369910
-0.00059089 0.03539195 0.01406205
0.00220406 0.03431871 0.01411148
0.00524538 0.03396362 0.01380908
0.02341073 0.03542930 0.01389283
0.02583256 0.03473316 0.01364657
0.02983370 0.03510127 0.01425353
0.03274757 0.03571440 0.01385340
-0.06844960 0.03698140 0.01298390
-0.06644462 0.03837396 0.01422055
-0.06389000 0.03971390 0.01544570
-0.03690200 0.03621430 0.01316720
-0.02541699 0.03787154 0.01424585
-0.02209166 0.03809916 0.01371756
-0.01822539 0.03817449 0.01430914
-0.01414124 0.03827675 0.01378176
-0.01009022 0.03836443 0.01411396
-0.00609966 0.03839599 0.01406246
-0.00250723 0.03731562 0.01395303
0.02210657 0.03630937 0.01419850
0.03487950 0.03641505 0.01395465
0.03835063 0.03790672 0.01399655
0.04140343 0.03939772 0.01439675
-0.06510207 0.04145723 0.01307325
-0.06199083 0.04244708 0.01432663
-0.05910837 0.04357287 0.01481197
0.04345765 0.04031650 0.01391295
0.04620007 0.04168607 0.01376777
0.04852168 0.04301403 0.01372090
-0.06063710 0.04481450 0.01206400
-0.05766915 0.04528011 0.01332874
-0.05417525 0.04645818 0.01439698
-0.05162500 0.04743780 0.01571220
0.05087917 0.04463787 0.01371460
0.05376330 0.04705264 0.01370136
-0.05286750 0.04960363 0.01289425
-0.05103619 0.05025870 0.01470126
0.05666338 0.05014268 0.01368853
-0.05257931 0.05502966 0.01276402
-0.05110325 0.05418713 0.01445560
0.05866957 0.05382484 0.01367833
-0.06486516 0.05957180 0.01389495
-0.06199118 0.05872879 0.01404117
-0.05820597 0.05771658 0.01391981
0.05975518 0.05670555 0.01367165
0.06043468 0.05885030 0.01366769
-0.07227086 0.06379230 0.01374460
-0.07003062 0.06202157 0.01394973
-0.06702750 0.06037177 0.01422608
0.06087195 0.06235248 0.01366122
-0.07604090 0.06776850 0.01301890
-0.07423733 0.06597412 0.01399777
0.06065847 0.06649526 0.01365778
-0.07862210 0.06963122 0.01414404
0.05905958 0.07042395 0.01376847
-0.08146550 0.07347604 0.01403811
0.04718667 0.07418725 0.01388668
0.05001539 0.07345800 0.01406460
0.05404627 0.07339769 0.01387651
0.05662037 0.07256798 0.01446628
-0.08504554 0.07842878 0.01411589
-0.08310738 0.07651301 0.01434563
0.04639835 0.07792789 0.01373879
-0.08663583 0.08198603 0.01399239
0.04609927 0.08203288 0.01367288
-0.08851638 0.08721864 0.01366414
-0.08721466 0.08530550 0.01418707
0.04571541 0.08620550 0.01366670
-0.08949870 0.09023055 0.01394980
0.04536935 0.09039991 0.01366120
-0.08946411 0.09427574 0.01393027
0.04468318 0.09457722 0.01366056
-0.08952188 0.09833502 0.01390854
0.04365118 0.09826857 0.01399277
0.04404750 0.09735350 0.01266095
-0.08871316 0.10235100 0.01388529
0.04242437 0.10149100 0.01366070
-0.08722168 0.10635633 0.01386209
0.03985948 0.10701051 0.01366420
0.04087938 0.10494250 0.01366341
-0.08956490 0.11191475 0.01384162
-0.08707124 0.10976374 0.01384652
0.03813212 0.10979486 0.01371224
-0.09230274 0.11468600 0.01432653
-0.09115323 0.11337250 0.01377685
0.03481626 0.11440310 0.01413767
0.03628267 0.11234067 0.01453477
-0.09313049 0.11737969 0.01380992
0.03086667 0.11907500 0.01413541
0.03273297 0.11706943 0.01384611
-0.09379876 0.12143017 0.01378759
0.02650924 0.12291820 0.01388186
0.02891598 0.12093128 0.01383731
-0.09356514 0.12548900 0.01376134
-0.04064630 0.12780400 0.01525350
-0.03761275 0.12763619 0.01428699
-0.03397596 0.12701629 0.01398675
-0.03020767 0.12588924 0.01402029
-0.02618277 0.12585834 0.01414338
-0.02209191 0.12699577 0.01398341
-0.01924033 0.12786867 0.01419350
0.01922290 0.12750499 0.01389857
0.02212622 0.12592906 0.01387487
0.02448665 0.12442775 0.01478075
-0.09285775 0.12959491 0.01374117
-0.04481288 0.13075687 0.01389327
-0.04224509 0.12865624 0.01387429
-0.03901125 0.12811750 0.01289210
-0.01703593 0.12843834 0.01402160
-0.01387784 0.12931587 0.01395450
-0.01015432 0.13011670 0.01400569
-0.00614923 0.13075240 0.01402693
-0.00202373 0.13127945 0.01389164
0.00219556 0.13165237 0.01413672
0.00620294 0.13161038 0.01391384
0.01013906 0.13100646 0.01392562
0.01400230 0.12971550 0.01399631
0.01707409 0.12847415 0.01412307
-0.09212057 0.13232134 0.01422833
-0.09096172 0.13415101 0.01355224
-0.04697924 0.13429824 0.01381550
-0.08981192 0.13781017 0.01370573
-0.04848453 0.13741663 0.01428432
-0.08982083 0.14194901 0.01369974
-0.04995075 0.14167167 0.01389343
-0.09043085 0.14607984 0.01365254
-0.05103279 0.14626615 0.01397584
-0.08975534 0.15035422 0.01376049
-0.05205700 0.15087999 0.01539540
-0.05113503 0.14990671 0.01387399
-0.08588873 0.15309013 0.01386223
-0.08204611 0.15457886 0.01435803
-0.07803717 0.15553309 0.01413785
-0.07557600 0.15585101 0.01240340
-0.06176407 0.15594551 0.01385693
-0.05798377 0.15558851 0.01393573
-0.05372106 0.15382983 0.01386089
-0.05131580 0.15215100 0.01251440
-0.07382495 0.15617850 0.01429077
-0.07001843 0.15619230 0.01378444
-0.06612171 0.15612611 0.01429965
-0.06342835 0.15608850 0.01453180
-0.06464700 0.03566285 0.01700690
-0.06247956 0.03468288 0.01809734
-0.05810160 0.03372413 0.01803054
-0.05443763 0.03342822 0.01832723
-0.03618950 0.03559920 0.01926920
-0.03387405 0.03414154 0.01794156
-0.03035610 0.03450369 0.01784481
-0.00020154 0.03578610 0.01741140
0.00180458 0.03485342 0.01793588
0.00562078 0.03426515 0.01797127
0.00910070 0.03480684 0.01837050
0.02253362 0.03521116 0.01800892
0.02596506 0.03497497 0.01801031
0.02956688 0.03557855 0.01758881
-0.06461525 0.03774420 0.01622685
-0.06220277 0.03853602 0.01783550
-0.05962960 0.03916290 0.01980490
-0.02600031 0.03785728 0.01842737
-0.02219548 0.03804709 0.01773055
-0.01803165 0.03819647 0.01794584
-0.01373201 0.03825551 0.01822793
-0.00990503 0.03833181 0.01754484
-0.00590206 0.03839531 0.01813080
-0.00204161 0.03768200 0.01798074
0.00030003 0.03607610 0.01906500
0.01896010 0.03612600 0.01918570
0.02067830 0.03617270 0.01767350
0.03073990 0.03618177 0.01910570
0.03396900 0.03692902 0.01787143
0.03788122 0.03834553 0.01790644
0.04092560 0.03956154 0.01751287
-0.06091754 0.04104383 0.01668587
-0.05762931 0.04234395 0.01777382
-0.05437563 0.04355013 0.01870220
0.04264610 0.04057540 0.01852708
0.04571641 0.04193342 0.01772207
0.04875240 0.04353525 0.01751220
-0.05294470 0.04508394 0.01789044
-0.05126846 0.04684329 0.01838599
0.05040144 0.04481678 0.01820773
0.05339924 0.04709936 0.01748977
-0.05035086 0.05015927 0.01814927
0.05567230 0.04933030 0.01769752
0.05684215 0.05084942 0.01769263
-0.05062666 0.05404400 0.01802466
0.05835831 0.05380644 0.01768162
-0.06407880 0.05984580 0.01711550
-0.06177752 0.05939637 0.01798249
-0.05847981 0.05844220 0.01791839
-0.05344520 0.05693425 0.01930678
0.05955141 0.05755939 0.01805369
0.06016263 0.05917425 0.01692283
-0.07211860 0.06371080 0.01736760
-0.07004748 0.06254084 0.01786711
-0.06611788 0.06082494 0.01823574
-0.06358760 0.06008820 0.01876070
0.05991155 0.06157150 0.01918490
0.06041009 0.06244849 0.01737677
-0.07382607 0.06591089 0.01800202
0.05974387 0.06746458 0.01842277
0.06039460 0.06595179 0.01729330
-0.08030510 0.07192290 0.01750510
-0.07810320 0.06991847 0.01812882
-0.07561280 0.06814275 0.01897520
0.04717960 0.07169320 0.01978130
0.05832110 0.07020986 0.01793926
-0.08109242 0.07402248 0.01815398
-0.07975440 0.07200450 0.01914720
0.04657143 0.07399753 0.01804609
0.04990748 0.07286689 0.01803027
0.05415465 0.07293786 0.01811508
0.05659600 0.07234615 0.01667940
-0.08485100 0.07856099 0.01800263
-0.08315509 0.07664641 0.01787717
0.04618543 0.07810928 0.01762216
-0.08621731 0.08197790 0.01798386
0.04587538 0.08186473 0.01777120
-0.08853102 0.08752152 0.01796030
-0.08721276 0.08540066 0.01797329
0.04544158 0.08618838 0.01766881
-0.08943295 0.09024590 0.01794538
0.04500755 0.09037704 0.01766353
-0.08943806 0.09429506 0.01792492
0.04387555 0.09593790 0.01866050
0.04439632 0.09427753 0.01745889
-0.08932251 0.09834702 0.01790077
0.04331240 0.09801727 0.01766045
-0.08863240 0.10208990 0.01767349
-0.08776465 0.10368150 0.01886085
0.04185909 0.10146951 0.01766435
-0.08674411 0.10636442 0.01785919
0.03960440 0.10672840 0.01796932
0.04054356 0.10482714 0.01745074
-0.08914383 0.11190050 0.01782945
-0.08684494 0.10974988 0.01784785
0.03783982 0.10986787 0.01763667
-0.09235770 0.11471325 0.01781512
-0.09078489 0.11310773 0.01776204
0.03465479 0.11438859 0.01824068
0.03621220 0.11217600 0.01880590
-0.09349751 0.11740518 0.01780445
0.03078135 0.11885361 0.01835217
0.03272462 0.11687233 0.01751683
-0.09438443 0.12145992 0.01778116
-0.02767910 0.12390000 0.01999200
0.02643895 0.12272862 0.01811569
0.02889350 0.12069267 0.01749797
-0.09424076 0.12552258 0.01775923
-0.04428940 0.12654200 0.01983980
-0.04185025 0.12701330 0.01794373
-0.03779974 0.12679547 0.01817414
-0.03385488 0.12619884 0.01785219
-0.03000576 0.12510641 0.01803165
-0.02584413 0.12512891 0.01802503
-0.02198703 0.12634200 0.01778360
-0.01905200 0.12733279 0.01836646
0.01882964 0.12739980 0.01817289
0.02217893 0.12572868 0.01795262
0.02427140 0.12448750 0.01790810
-0.09331606 0.12962617 0.01773812
-0.04488640 0.12996036 0.01822525
-0.04352570 0.12818301 0.01715560
-0.01708445 0.12814325 0.01752700
-0.01405951 0.12892020 0.01810275
-0.00987669 0.12991551 0.01815664
-0.00571669 0.13062088 0.01795838
-0.00196467 0.13100600 0.01813820
0.00204159 0.13132073 0.01811476
0.00625713 0.13130274 0.01805384
0.01019509 0.13076191 0.01783531
0.01393868 0.12956360 0.01798524
0.01666836 0.12846039 0.01780324
-0.09227187 0.13235350 0.01772357
-0.09115412 0.13441388 0.01771127
-0.04820745 0.13543700 0.01859305
-0.04689531 0.13369301 0.01747844
-0.09077286 0.13784365 0.01769064
-0.04939928 0.13782538 0.01788911
-0.09165379 0.14197150 0.01767195
-0.05237140 0.14314801 0.01939020
-0.05084629 0.14149445 0.01774601
-0.09147171 0.14609309 0.01765065
-0.05233034 0.14604712 0.01851531
-0.05181335 0.14663526 0.01665393
-0.09044819 0.15038456 0.01767961
-0.05251350 0.15054020 0.01790720
-0.05177140 0.14934000 0.01639450
-0.08862320 0.15207399 0.01822970
-0.08598126 0.15329809 0.01811253
-0.08191101 0.15474214 0.01793280
-0.07816388 0.15566321 0.01798762
-0.07574560 0.15596600 0.01963250
-0.06070555 0.15588968 0.01767667
-0.05791358 0.15535258 0.01795702
-0.05458922 0.15366493 0.01807942
-0.07399607 0.15616800 0.01769165
-0.07004486 0.15634175 0.01798754
-0.06586460 0.15625210 0.01801480
-0.06285002 0.15608232 0.01836115
-0.06406390 0.03519630 0.02272320
-0.06188148 0.03454525 0.02175787
-0.05801336 0.03391268 0.02217345
-0.05436897 0.03372683 0.02215524
-0.03627017 0.03499250 0.02279226
-0.03422025 0.03420399 0.02182366
-0.03121600 0.03454570 0.02183157
0.00287800 0.03531984 0.02099610
0.00591693 0.03485632 0.02221329
0.00972324 0.03462832 0.02192336
0.01405592 0.03455784 0.02232651
0.01814839 0.03476239 0.02252190
0.02205159 0.03493492 0.02179825
0.02557712 0.03550613 0.02154900
-0.06090675 0.03860163 0.02182478
-0.05966205 0.03917985 0.02071610
-0.02900653 0.03716603 0.02233624
-0.02605889 0.03785381 0.02189611
-0.02191492 0.03812124 0.02209242
-0.01805131 0.03823651 0.02181850
-0.01395090 0.03833453 0.02213826
-0.01022436 0.03840481 0.02189884
-0.00582403 0.03851649 0.02195925
-0.00165568 0.03846188 0.02195417
0.00147055 0.03728722 0.02229166
0.00407218 0.03613950 0.02340150
0.02678220 0.03647822 0.02319015
0.02998363 0.03707191 0.02239583
0.03413643 0.03817610 0.02224713
0.03763598 0.03923907 0.02174428
0.04030420 0.03987940 0.02014450
-0.06101302 0.04073135 0.02320595
-0.05799699 0.04251555 0.02219720
-0.05516265 0.04362220 0.02119015
0.03944405 0.04016880 0.02244740
0.04235796 0.04159795 0.02244570
0.04595137 0.04307830 0.02151033
-0.05341065 0.04613582 0.02230948
-0.05171390 0.04749700 0.02065630
0.04657160 0.04400080 0.02316550
0.05011401 0.04589444 0.02202161
0.05295310 0.04764885 0.02071285
-0.05221507 0.04943436 0.02331000
-0.05151528 0.05060367 0.02174283
0.05171180 0.04814600 0.02357160
0.05407770 0.04971667 0.02210149
0.05628250 0.05081780 0.02018660
-0.05157156 0.05403091 0.02207760
0.05565635 0.05246250 0.02317435
0.05731679 0.05403768 0.02170788
-0.06022810 0.05999200 0.02131120
-0.05825624 0.05941655 0.02134772
-0.05382814 0.05804311 0.02225346
-0.05192570 0.05631690 0.02013590
0.05853533 0.05812580 0.02179362
-0.06925674 0.06330533 0.02134586
-0.06612361 0.06224453 0.02225268
-0.06229882 0.06083542 0.02192224
-0.05920723 0.06058012 0.02335170
0.05887274 0.06217442 0.02205377
-0.07324302 0.06688219 0.02163031
-0.07096294 0.06511791 0.02226782
0.05854412 0.06622508 0.02185507
-0.07737194 0.07053480 0.02205213
-0.07500491 0.06867630 0.02274648
0.04617086 0.07054196 0.02235342
0.04965266 0.07107760 0.02237705
0.05379926 0.07096998 0.02241093
0.05696328 0.06949907 0.02161678
-0.08078004 0.07501172 0.02191407
-0.07936010 0.07306591 0.02197997
0.04505092 0.07377913 0.02235552
0.05144520 0.07231135 0.02065325
0.05328450 0.07224301 0.02063780
-0.08443500 0.07916030 0.02050350
-0.08281606 0.07775664 0.02202956
0.04544354 0.07752897 0.02186325
-0.08503630 0.08218057 0.02178384
-0.08384495 0.08047865 0.02299825
0.04536717 0.08162525 0.02167722
-0.08815370 0.08750350 0.02045700
-0.08682705 0.08603495 0.02224888
0.04502086 0.08616110 0.02166472
-0.08867551 0.09034964 0.02177000
-0.08777600 0.08919060 0.02351470
0.04394720 0.09171850 0.02315640
0.04451470 0.09021634 0.02152455
-0.08880854 0.09402251 0.02219554
0.04360376 0.09504160 0.02203286
0.04415927 0.09349166 0.02090818
-0.08852943 0.09792196 0.02193645
-0.08787700 0.09904670 0.02337820
0.04266180 0.09798356 0.02166231
-0.08826635 0.10100700 0.02086775
-0.08718964 0.10246000 0.02218899
0.04119619 0.10143266 0.02166657
-0.08552464 0.10632917 0.02185713
0.03933519 0.10604111 0.02183335
0.04026177 0.10420066 0.02116357
-0.08814650 0.11186900 0.02033190
-0.08601937 0.11034142 0.02185863
0.03573480 0.11187700 0.02291520
0.03727850 0.10975001 0.02182853
-0.09002258 0.11377743 0.02186895
-0.08732446 0.11224000 0.02296945
0.03437471 0.11408662 0.02219249
-0.09318125 0.11747774 0.02181748
0.03041882 0.11868989 0.02234888
0.03248958 0.11665601 0.02142068
-0.09439144 0.12147751 0.02178569
-0.04232177 0.12390500 0.02358497
-0.03314450 0.12361633 0.02343237
-0.02976204 0.12292480 0.02248527
-0.02618762 0.12328243 0.02241696
-0.02338115 0.12386701 0.02300110
0.02600279 0.12244254 0.02212172
0.02865898 0.12047920 0.02140140
-0.09438302 0.12555249 0.02176548
-0.04497080 0.12625422 0.02240788
-0.04199937 0.12520662 0.02146050
-0.03811336 0.12539564 0.02196096
-0.03441343 0.12485341 0.02167259
-0.03097097 0.12428433 0.02076367
-0.02484005 0.12423649 0.02100000
-0.02192765 0.12507385 0.02162698
-0.01792250 0.12673134 0.02198360
-0.01468700 0.12774925 0.02276105
0.01569175 0.12778150 0.02330490
0.01804991 0.12685099 0.02203616
0.02197364 0.12525439 0.02204574
0.02423980 0.12415700 0.02074865
-0.09337426 0.12965842 0.02174203
-0.04625961 0.13041446 0.02232291
-0.01346147 0.12847351 0.02137673
-0.01001810 0.12929223 0.02204512
-0.00607001 0.13008811 0.02185597
-0.00174286 0.13038436 0.02210510
0.00226856 0.13063219 0.02212930
0.00608223 0.13055636 0.02206099
0.01003431 0.13004492 0.02193775
0.01383599 0.12890899 0.02190099
-0.09226557 0.13237433 0.02122413
-0.09096986 0.13420990 0.02188395
-0.04899418 0.13502833 0.02237722
-0.04741122 0.13328800 0.02122952
-0.09039658 0.13786817 0.02169184
-0.05061589 0.13757691 0.02203116
-0.09110701 0.14199792 0.02166632
-0.05254053 0.14192539 0.02210337
-0.05140690 0.14006549 0.02087245
-0.09153876 0.14611326 0.02164809
-0.05302860 0.14623624 0.02189915
-0.08978001 0.15040421 0.02167874
-0.05308769 0.15024200 0.02174004
-0.08582231 0.15296015 0.02213487
-0.08192594 0.15444143 0.02191147
-0.07789073 0.15545431 0.02196679
-0.07472327 0.15592049 0.02254330
-0.06148006 0.15577662 0.02247971
-0.05787109 0.15503974 0.02196202
-0.05459740 0.15316890 0.02206676
-0.07329170 0.15612900 0.02145920
-0.06976686 0.15628679 0.02201118
-0.06606292 0.15622760 0.02201128
-0.06293413 0.15611476 0.02123142
-0.06473278 0.03508472 0.02568463
-0.06199331 0.03428116 0.02602920
-0.05785897 0.03411098 0.02585199
-0.05371098 0.03404646 0.02589760
-0.05053039 0.03392401 0.02667355
-0.04652997 0.03381663 0.02760750
-0.04230810 0.03384627 0.02669818
-0.03784266 0.03449600 0.02630473
-0.03431293 0.03428926 0.02620767
-0.03149323 0.03545530 0.02575573
0.00686813 0.03550875 0.02499030
0.01011263 0.03499278 0.02615638
0.01380911 0.03471252 0.02576105
0.01820940 0.03491280 0.02617724
0.02181895 0.03535385 0.02568596
-0.06496800 0.03766768 0.02603468
-0.06296299 0.03885340 0.02521505
-0.02908340 0.03781650 0.02653442
-0.02610533 0.03809504 0.02593858
-0.02184689 0.03827437 0.02611182
-0.01789020 0.03839499 0.02591500
-0.01417872 0.03847868 0.02600009
-0.00973237 0.03856216 0.02623558
-0.00620463 0.03862248 0.02570074
-0.00194637 0.03877293 0.02613705
0.00228261 0.03861427 0.02578945
0.00565746 0.03764857 0.02644203
0.00854073 0.03655370 0.02756120
0.02364050 0.03661060 0.02697200
0.02609534 0.03728802 0.02584399
0.02986358 0.03875911 0.02607311
0.03349988 0.03942978 0.02535652
0.03623420 0.03987410 0.02479370
-0.06430470 0.04088533 0.02733844
-0.06230944 0.04189750 0.02580636
-0.05840050 0.04397070 0.02468770
0.03089530 0.04001110 0.02721420
0.03419327 0.04095524 0.02704036
0.03831483 0.04123239 0.02581810
0.04161827 0.04298721 0.02613495
0.04477390 0.04384220 0.02480390
-0.06074445 0.04422020 0.02718825
-0.05786265 0.04532512 0.02634803
-0.05455079 0.04719862 0.02595456
0.04278670 0.04451460 0.02742700
0.04613856 0.04560775 0.02617861
0.04861687 0.04659347 0.02515453
-0.05265457 0.05042583 0.02615010
0.05025124 0.04926037 0.02626987
0.05264095 0.05068010 0.02493153
-0.05210340 0.05444703 0.02600264
-0.05198830 0.05456810 0.02763850
0.05194180 0.05256930 0.02748870
0.05421980 0.05394950 0.02605353
0.05603370 0.05530310 0.02459520
-0.05262650 0.05820337 0.02606880
0.05510169 0.05814826 0.02682414
0.05663884 0.05807501 0.02463193
-0.06528776 0.06342234 0.02560101
-0.06189432 0.06250282 0.02598249
-0.05825986 0.06147401 0.02573226
-0.05470093 0.06098972 0.02690195
0.05505267 0.06241620 0.02729927
0.05676185 0.06202145 0.02551281
-0.07250727 0.06763200 0.02505217
-0.06987317 0.06612828 0.02581162
-0.06683414 0.06473214 0.02665170
0.04282038 0.06616380 0.02726725
0.04582838 0.06683058 0.02647533
0.05000496 0.06715803 0.02702451
0.05415963 0.06628722 0.02645788
0.05676142 0.06550573 0.02489300
-0.07683130 0.07130633 0.02564936
-0.07450690 0.06947020 0.02625865
-0.07196030 0.06816260 0.02763750
0.04310868 0.06968023 0.02665939
0.04566268 0.06913752 0.02479610
0.04999527 0.06926624 0.02507910
0.05377349 0.06909194 0.02464273
-0.08020550 0.07548130 0.02486700
-0.07855348 0.07382286 0.02619409
0.04341065 0.07368478 0.02664645
0.04409430 0.07358634 0.02493090
-0.08181223 0.07799619 0.02592435
-0.07997600 0.07653200 0.02753030
0.04344855 0.07774241 0.02673955
0.04439628 0.07791610 0.02473354
-0.08433773 0.08263844 0.02577889
-0.08354189 0.08085273 0.02659123
0.04354383 0.08203312 0.02690229
0.04442627 0.08188952 0.02466415
-0.08508134 0.08565301 0.02606242
0.04351970 0.08595116 0.02652507
0.04430712 0.08582723 0.02455428
-0.08644379 0.08954015 0.02605572
0.04296462 0.09015799 0.02606888
-0.08693176 0.09373357 0.02613573
0.04243874 0.09427379 0.02591005
-0.08665637 0.09790091 0.02600400
0.03987400 0.09961365 0.02747690
0.04121266 0.09831689 0.02566352
-0.08575793 0.10187700 0.02575146
-0.08393100 0.10326500 0.02779850
0.03938371 0.10217413 0.02670650
0.04052828 0.10139699 0.02442325
-0.08461000 0.10558674 0.02512380
-0.08324688 0.10654233 0.02687004
0.03835011 0.10572054 0.02587734
-0.08508383 0.11095500 0.02575178
-0.08329560 0.10930700 0.02661125
0.03512556 0.11060224 0.02677698
0.03681822 0.10906267 0.02530385
-0.08958722 0.11477046 0.02582470
-0.08693880 0.11276733 0.02595792
0.03170065 0.11559450 0.02639870
0.03350915 0.11356538 0.02592723
-0.09259793 0.11828700 0.02545810
-0.09136200 0.11673200 0.02615646
0.02688413 0.11960233 0.02721190
0.02988571 0.11778049 0.02598135
-0.09353545 0.12148100 0.02579363
-0.04561058 0.12242241 0.02633905
-0.04204254 0.12248887 0.02594006
-0.03800952 0.12296178 0.02648164
-0.03384634 0.12227377 0.02608976
-0.03004212 0.12118928 0.02602535
-0.02606350 0.12170000 0.02633486
-0.02252338 0.12299075 0.02611335
-0.01912905 0.12367401 0.02747905
0.02242079 0.12338899 0.02632400
0.02556550 0.12147469 0.02580107
0.02800380 0.12034900 0.02429500
-0.09362039 0.12556082 0.02577368
-0.04653937 0.12612644 0.02603094
-0.03772275 0.12409100 0.02449110
-0.02015380 0.12440550 0.02489120
-0.01763440 0.12514450 0.02577945
-0.01415611 0.12661263 0.02607233
-0.01081364 0.12733640 0.02685502
0.01115710 0.12789699 0.02744905
0.01452066 0.12717089 0.02661451
0.01781268 0.12559830 0.02601071
0.02082188 0.12475801 0.02504880
-0.09277306 0.12954819 0.02561251
-0.09186540 0.13103899 0.02723440
-0.04846647 0.13140075 0.02681212
-0.04726054 0.12951180 0.02567091
-0.01220870 0.12813701 0.02401390
-0.00949959 0.12838960 0.02557146
-0.00599057 0.12892859 0.02588020
-0.00213647 0.12916000 0.02618204
0.00182915 0.12934990 0.02603267
0.00585586 0.12928237 0.02604774
0.00973219 0.12894319 0.02575096
0.01303187 0.12834150 0.02482875
-0.09069127 0.13377076 0.02571891
-0.04992317 0.13438258 0.02611288
-0.08932865 0.13788542 0.02569166
-0.05264867 0.13826251 0.02659134
-0.05145546 0.13688698 0.02531722
-0.09071793 0.14207062 0.02577985
-0.05329758 0.14166959 0.02591934
-0.09083410 0.14589639 0.02584967
-0.05412268 0.14621557 0.02590461
-0.08925157 0.14936171 0.02543812
-0.08707350 0.15111186 0.02604823
-0.05417212 0.15019833 0.02605918
-0.08512830 0.15236899 0.02581757
-0.08213737 0.15355134 0.02598600
-0.07809668 0.15471798 0.02616428
-0.07418324 0.15542971 0.02602758
-0.07035916 0.15563157 0.02652099
-0.06572863 0.15561420 0.02635578
-0.06191944 0.15531355 0.02583158
-0.05797029 0.15445045 0.02605873
-0.05505907 0.15300201 0.02554811
-0.06970563 0.15605450 0.02466290
-0.06655340 0.15608799 0.02431770
-0.06540267 0.03486256 0.03015227
-0.06173255 0.03430317 0.03012494
-0.05805304 0.03426447 0.02990246
-0.05396933 0.03434107 0.02998400
-0.04974518 0.03436279 0.02997771
-0.04577150 0.03431476 0.02975948
-0.04202680 0.03430022 0.02989747
-0.03798572 0.03428939 0.02987443
-0.03407005 0.03498809 0.03009200
0.01127575 0.03564323 0.02983727
0.01387027 0.03486567 0.02979927
0.01795114 0.03501112 0.03008906
0.02082423 0.03555843 0.02975443
-0.06605428 0.03863288 0.03031129
-0.02987057 0.03795724 0.03026645
-0.02571603 0.03837258 0.03032328
-0.02217583 0.03846207 0.02977302
-0.01792226 0.03861021 0.03021613
-0.01399569 0.03867570 0.03006414
-0.01006195 0.03875751 0.02989852
-0.00583356 0.03887736 0.03011859
-0.00227843 0.03896613 0.02980683
0.00201851 0.03919344 0.03018470
0.00618135 0.03898365 0.02966502
0.00945409 0.03735336 0.03010397
0.02298542 0.03693068 0.03016910
0.02576677 0.03852173 0.02936666
-0.06459910 0.04191186 0.03043461
-0.06356320 0.04315795 0.02917350
0.02712370 0.04030173 0.03095860
0.03018082 0.04209926 0.02971415
0.03408920 0.04299758 0.02880186
0.03755877 0.04298483 0.02863478
-0.06194655 0.04496779 0.03039614
-0.05836366 0.04679468 0.03000732
-0.05558425 0.04791510 0.02916620
0.03126640 0.04569378 0.03127330
0.03381793 0.04580823 0.03038120
0.03810575 0.04556644 0.03058429
0.04185773 0.04606330 0.03003271
0.04495857 0.04662820 0.02844503
-0.05672580 0.04804050 0.03166840
-0.05289329 0.05018897 0.02995611
-0.05180220 0.05169135 0.03094275
0.03485220 0.04933372 0.03135147
0.03736866 0.04986759 0.03174769
0.04315705 0.04825940 0.03143610
0.04604239 0.04960791 0.03034802
0.04889354 0.05057550 0.02868456
-0.05148122 0.05437232 0.03021870
0.03553090 0.05272050 0.03199000
0.03789413 0.05416892 0.03161275
0.04049410 0.05555820 0.03184630
0.04702942 0.05369806 0.03163578
0.04984457 0.05399122 0.02974361
0.05251810 0.05471920 0.02834860
-0.05222640 0.05901560 0.02863490
-0.05145215 0.05828983 0.03041783
0.03876515 0.05784805 0.03121967
0.04200196 0.05832803 0.03114739
0.04617212 0.05881394 0.03158681
0.04998565 0.05808052 0.03043551
0.05301388 0.05835456 0.02887800
-0.06156274 0.06364122 0.02880732
-0.05794837 0.06303273 0.02960584
-0.05391586 0.06231907 0.03017438
-0.05151185 0.06124545 0.03137765
0.03944058 0.06141692 0.03123424
0.04170800 0.06224653 0.02938047
0.04599388 0.06245683 0.02982086
0.05033568 0.06238394 0.02968612
0.05307854 0.06202349 0.02871260
-0.06938099 0.06728565 0.02892690
-0.06604042 0.06599365 0.02992486
-0.06227883 0.06480141 0.03063848
-0.05908490 0.06441370 0.03182520
0.04082813 0.06570537 0.02993904
0.04698935 0.06515220 0.02829115
0.05000922 0.06514982 0.02840907
0.05235580 0.06479920 0.02814070
-0.07373600 0.07060019 0.02959934
-0.07039289 0.06887184 0.03067343
0.04118799 0.06988624 0.03013439
-0.07711861 0.07432633 0.02968567
-0.07505170 0.07268316 0.03096498
0.04183678 0.07382700 0.02968082
-0.08098353 0.07845260 0.02912464
-0.07905934 0.07756832 0.03056370
0.04184874 0.07787550 0.02974248
-0.08217533 0.08166660 0.03024321
0.04193445 0.08193121 0.02990068
-0.08410950 0.08633970 0.02849940
-0.08319180 0.08560882 0.03015741
0.04182838 0.08595628 0.02980108
-0.08471581 0.09020393 0.02874325
-0.08324876 0.08964832 0.03053909
0.04091677 0.08998069 0.03027622
-0.08490884 0.09384997 0.02906532
-0.08331767 0.09391737 0.03100152
0.03974507 0.09403927 0.03126703
0.04081713 0.09414940 0.02914932
-0.08470759 0.09773487 0.02891974
-0.08289948 0.09813902 0.03098190
0.03888776 0.09815066 0.03038757
0.04032130 0.09724096 0.02837363
-0.08431005 0.10125150 0.02823820
-0.08217604 0.10199346 0.03031923
0.03536820 0.10338700 0.03198730
0.03757193 0.10201430 0.02988537
-0.08128040 0.10597055 0.02973093
-0.07962414 0.10566067 0.03168707
0.03483581 0.10633133 0.03061585
0.03667152 0.10556649 0.02885385
-0.08464733 0.11164767 0.03009047
-0.08209027 0.10997272 0.03004664
0.03152110 0.11073950 0.03167980
0.03347146 0.10993385 0.02975637
-0.08934575 0.11444717 0.03005945
-0.08673504 0.11273263 0.02993639
0.02775570 0.11564299 0.03148840
0.03027255 0.11422430 0.03026200
0.03229987 0.11287000 0.02891143
-0.09219667 0.11834600 0.03097160
-0.09128860 0.11711555 0.02941946
-0.04898444 0.11882871 0.03122032
-0.04645738 0.11837066 0.03024642
-0.04200144 0.11866175 0.03056174
-0.03783175 0.11846589 0.03096784
-0.03393759 0.11867183 0.03046650
-0.02985397 0.11868892 0.03002346
-0.02631205 0.11901511 0.03071078
-0.02354670 0.11949900 0.03165370
0.02345000 0.11935550 0.03143585
0.02601012 0.11799040 0.03021666
0.02855100 0.11682266 0.02926490
-0.09254375 0.12148800 0.02978517
-0.04880493 0.12254786 0.03057897
-0.04758826 0.12221084 0.02852260
-0.04145500 0.12069700 0.02843003
-0.03758916 0.12107215 0.02894467
-0.03413755 0.12043325 0.02881727
-0.02504443 0.12077400 0.02885317
-0.02163980 0.12163166 0.02973035
-0.01809008 0.12255670 0.03046072
-0.01478557 0.12371675 0.03106970
0.01521300 0.12354975 0.03104533
0.01815432 0.12297082 0.03002446
0.02182910 0.12163702 0.03012045
0.02462685 0.12053700 0.02875810
-0.09257623 0.12556432 0.02976435
-0.04892361 0.12597425 0.03077406
-0.04752265 0.12537199 0.02854025
-0.01724760 0.12413000 0.02811510
-0.01364657 0.12488663 0.02975990
-0.00969587 0.12571055 0.03021620
-0.00611512 0.12648422 0.03028302
-0.00203946 0.12689379 0.03029790
0.00183756 0.12686050 0.03023333
0.00590368 0.12692350 0.02993016
0.00992950 0.12635817 0.03017049
0.01378801 0.12553707 0.02972516
0.01667650 0.12456000 0.02867920
-0.09222950 0.12864825 0.02898563
-0.09153919 0.13018712 0.03011175
-0.04950756 0.12967062 0.03014742
-0.00425882 0.12803499 0.02833420
-0.00041853 0.12818301 0.02824420
0.00323976 0.12817700 0.02813530
0.00694939 0.12821500 0.02801490
-0.09005889 0.13378209 0.02971604
-0.05301050 0.13452072 0.03111493
-0.05090002 0.13343379 0.02929438
-0.08929586 0.13790341 0.02969277
-0.05654967 0.13910033 0.03169863
-0.05434098 0.13782778 0.02986692
-0.08976823 0.14197741 0.02975331
-0.05661577 0.14244066 0.03131199
-0.05494161 0.14242412 0.02932411
-0.08899962 0.14571242 0.02992289
-0.08756220 0.14725500 0.03148490
-0.05654962 0.14604326 0.03145297
-0.05506176 0.14609858 0.02920974
-0.08850310 0.14852101 0.02817280
-0.08600637 0.15007199 0.02965763
-0.08321007 0.15143134 0.03073320
-0.05686624 0.14992385 0.03125436
-0.05563250 0.14982143 0.02906837
-0.08115949 0.15274921 0.02965620
-0.07799229 0.15354644 0.03019313
-0.07404064 0.15430200 0.03008069
-0.07013530 0.15466689 0.02994398
-0.06613890 0.15454543 0.03019227
-0.06203011 0.15436827 0.02977351
-0.05794584 0.15334885 0.02990886
-0.05551930 0.15245301 0.02830510
-0.06578592 0.03506384 0.03370781
-0.06226252 0.03438324 0.03394922
-0.05790264 0.03440665 0.03433645
-0.05428922 0.03444499 0.03384969
-0.05009913 0.03452975 0.03414420
-0.04601863 0.03455146 0.03395537
-0.04185945 0.03450717 0.03415651
-0.03816281 0.03442964 0.03395009
-0.03494620 0.03484953 0.03356405
0.01118475 0.03512915 0.03388985
0.01423782 0.03476094 0.03430395
0.01818906 0.03515974 0.03388010
0.02004750 0.03556840 0.03260310
-0.06651206 0.03756784 0.03406896
-0.03252480 0.03719970 0.03292600
-0.02971415 0.03834322 0.03341180
-0.02597929 0.03868049 0.03388166
-0.02175431 0.03879762 0.03410993
-0.01822204 0.03884872 0.03383474
-0.01375902 0.03897018 0.03404618
-0.01003984 0.03907147 0.03412225
-0.00612651 0.03911462 0.03398837
-0.00187872 0.03927419 0.03417977
0.00178289 0.03935485 0.03359891
0.00602574 0.03932306 0.03287366
0.00923899 0.03749870 0.03317853
0.02244717 0.03743132 0.03396419
0.02476025 0.03915817 0.03301045
-0.06501290 0.04220368 0.03442106
0.02643046 0.04166672 0.03400300
0.02837880 0.04324875 0.03280200
-0.06240492 0.04555774 0.03438209
-0.05914947 0.04727777 0.03409846
0.02972100 0.04619676 0.03389465
-0.05729577 0.04810928 0.03416488
-0.05289642 0.04911450 0.03445474
-0.05090491 0.05089085 0.03423950
0.03100500 0.04960853 0.03492322
0.03330531 0.05073487 0.03300109
0.03923985 0.04990645 0.03218953
0.04176708 0.05001567 0.03238681
0.04432680 0.05113340 0.03226090
-0.04957175 0.05461840 0.03415099
0.03199540 0.05202130 0.03549990
0.03442113 0.05405112 0.03414553
0.03776485 0.05376210 0.03232735
0.04213163 0.05405868 0.03232092
0.04522356 0.05430310 0.03231952
-0.04952522 0.05828552 0.03407755
0.03540322 0.05717264 0.03522256
0.03693593 0.05795200 0.03332618
0.04552270 0.05694364 0.03209880
-0.05387320 0.06345250 0.03200610
-0.04985389 0.06169234 0.03421655
0.03791881 0.06193084 0.03417341
-0.06519512 0.06720088 0.03268432
-0.06184546 0.06672816 0.03382704
-0.05803580 0.06569454 0.03401355
-0.05402678 0.06499667 0.03427981
-0.05079402 0.06468371 0.03513820
0.03884029 0.06590203 0.03411525
-0.07216525 0.07141535 0.03266205
-0.06973303 0.07056808 0.03370163
-0.06647294 0.06927092 0.03439628
-0.06359563 0.06869694 0.03535517
0.03886870 0.06994333 0.03418523
-0.07647600 0.07597000 0.03223230
-0.07389865 0.07406766 0.03369746
-0.07121190 0.07283600 0.03514687
0.03889239 0.07398439 0.03424636
0.04045017 0.07392720 0.03210530
-0.07755438 0.07862255 0.03339700
-0.07516164 0.07750188 0.03494762
0.03904110 0.07804263 0.03449468
0.04053544 0.07797257 0.03223950
-0.08063805 0.08246695 0.03291482
-0.07862704 0.08151278 0.03453583
0.03888913 0.08195128 0.03487184
0.04040864 0.08231001 0.03281848
-0.08111154 0.08587591 0.03329278
-0.07940042 0.08562810 0.03546650
0.03896507 0.08610664 0.03445170
0.04051693 0.08604784 0.03231920
-0.08120535 0.08991713 0.03326065
-0.07935032 0.09026073 0.03548806
0.03878088 0.09011864 0.03424711
-0.08131038 0.09398907 0.03322700
-0.07911580 0.09404210 0.03526913
0.03812626 0.09421448 0.03394632
-0.08104350 0.09773650 0.03308035
-0.07876191 0.09839076 0.03501610
0.03531998 0.09892444 0.03509058
0.03706023 0.09778557 0.03327115
-0.08016265 0.10138200 0.03256365
-0.07810327 0.10229201 0.03424774
0.03191330 0.10343900 0.03577370
0.03426402 0.10220308 0.03421045
0.03634115 0.10073650 0.03251525
-0.07785833 0.10614657 0.03368970
-0.07573750 0.10605600 0.03592960
0.03107415 0.10628557 0.03507854
0.03300144 0.10577967 0.03325318
-0.08593355 0.11134350 0.03437097
-0.08188581 0.11001460 0.03394386
-0.07883786 0.10852117 0.03449742
-0.03749030 0.11115600 0.03599710
0.02676777 0.11140633 0.03536863
0.03000334 0.10999144 0.03390183
-0.09013059 0.11388584 0.03402792
-0.08782610 0.11219000 0.03370970
-0.05681947 0.11344668 0.03585360
-0.05389591 0.11414657 0.03508752
-0.05013558 0.11423240 0.03452029
-0.04599952 0.11389916 0.03454076
-0.04199630 0.11391008 0.03467212
-0.03798775 0.11390117 0.03420294
-0.03400779 0.11388925 0.03404390
-0.03000799 0.11391025 0.03464955
-0.02602285 0.11462462 0.03466239
-0.02356610 0.11541500 0.03536670
0.02266634 0.11449686 0.03514590
0.02591447 0.11404700 0.03384329
0.02876070 0.11308251 0.03297875
-0.09254751 0.11773720 0.03400306
-0.09176925 0.11610100 0.03281610
-0.05315991 0.11800800 0.03474411
-0.05055843 0.11812768 0.03286873
-0.04500095 0.11661150 0.03211560
-0.04200210 0.11665675 0.03249970
-0.03848880 0.11665234 0.03226137
-0.03350013 0.11662534 0.03210387
-0.03000165 0.11662175 0.03230827
-0.02572792 0.11696000 0.03278886
-0.02202723 0.11814149 0.03393360
-0.01820614 0.11895371 0.03502446
-0.01550190 0.11961900 0.03577710
0.01150150 0.11961600 0.03589410
0.01429824 0.11929740 0.03536984
0.01824314 0.11834960 0.03497378
0.02192875 0.11780693 0.03364656
0.02469870 0.11670000 0.03237360
-0.09287802 0.12151776 0.03378209
-0.05234650 0.12169833 0.03538263
-0.05052257 0.12180186 0.03340269
-0.01799822 0.12091650 0.03301545
-0.01382682 0.12188622 0.03388374
-0.01015428 0.12282745 0.03416130
-0.00576787 0.12315222 0.03479958
-0.00195875 0.12304660 0.03504427
0.00202626 0.12295314 0.03464923
0.00597305 0.12264517 0.03475839
0.01029645 0.12232979 0.03455574
0.01404667 0.12176307 0.03359987
0.01823117 0.12082262 0.03292282
0.02089110 0.12068700 0.03215270
-0.09232491 0.12545136 0.03371564
-0.09196250 0.12695500 0.03425060
-0.05258999 0.12549166 0.03535093
-0.05087576 0.12546931 0.03343440
-0.00548765 0.12457917 0.03303790
-0.00175749 0.12496060 0.03274090
0.00209018 0.12494101 0.03279690
0.00588647 0.12484020 0.03285270
0.00973065 0.12445100 0.03264005
-0.09121274 0.12968399 0.03373742
-0.05351238 0.12995741 0.03462112
-0.05129686 0.12915060 0.03283666
-0.08989406 0.13380007 0.03371600
-0.05732584 0.13445652 0.03511307
-0.05463003 0.13351689 0.03347037
-0.08968484 0.13792340 0.03369294
-0.06116289 0.13828143 0.03497582
-0.05824042 0.13788237 0.03334893
-0.08902651 0.14200641 0.03365260
-0.06037970 0.14176650 0.03557600
-0.05881393 0.14244308 0.03340583
-0.08832665 0.14453550 0.03301555
-0.08658560 0.14630291 0.03438800
-0.05857484 0.14606425 0.03380629
-0.08498807 0.14897723 0.03310715
-0.08215971 0.15004863 0.03419221
-0.07806112 0.15137501 0.03494296
-0.07199170 0.15190899 0.03581080
-0.06159530 0.15101467 0.03558030
-0.05858776 0.14979607 0.03395136
-0.07709564 0.15250880 0.03341900
-0.07358856 0.15283121 0.03390059
-0.06952791 0.15305372 0.03392503
-0.06590889 0.15294561 0.03414804
-0.06191024 0.15292299 0.03348157
-0.05891430 0.15243833 0.03279397
-0.06511247 0.03510327 0.03777685
-0.06172710 0.03448055 0.03814250
-0.05817081 0.03441706 0.03774630
-0.05378824 0.03448779 0.03810075
-0.05026403 0.03457011 0.03800134
-0.04607288 0.03459235 0.03814903
-0.04229147 0.03453813 0.03783693
-0.03792243 0.03451683 0.03820146
-0.03433575 0.03445908 0.03798914
-0.00107351 0.03493220 0.03965150
0.00258741 0.03483220 0.03869525
0.00590904 0.03471780 0.03858089
0.01011478 0.03468100 0.03767660
0.01399376 0.03478901 0.03824811
0.01752177 0.03523965 0.03779884
-0.06582814 0.03772095 0.03792801
-0.02856120 0.03856155 0.03613185
-0.02564205 0.03894800 0.03729475
-0.02200936 0.03909660 0.03791381
-0.01777470 0.03923280 0.03812889
-0.01424579 0.03928063 0.03785856
-0.01003504 0.03936109 0.03745748
-0.00638867 0.03938688 0.03683788
-0.00388013 0.03949390 0.03680980
0.01992350 0.03655220 0.03892400
0.02194276 0.03803005 0.03770904
-0.06470598 0.04131580 0.03772487
-0.06346065 0.04289015 0.03889265
0.02344626 0.04091650 0.03914686
0.02506827 0.04243537 0.03767451
-0.06204662 0.04545829 0.03774211
-0.05861468 0.04729022 0.03904445
-0.05399610 0.04778805 0.03982990
-0.04999653 0.04774768 0.03958805
-0.04600008 0.04780520 0.03972708
-0.03799468 0.04781770 0.03975272
-0.03552750 0.04785000 0.03964040
0.02352753 0.04723230 0.03961387
0.02603480 0.04614681 0.03795807
0.02849375 0.04775675 0.03654990
-0.05668010 0.04823043 0.03749936
-0.05427577 0.04870582 0.03796181
-0.04985265 0.04968462 0.03738643
-0.04600684 0.05052435 0.03843345
-0.04217260 0.05014371 0.03944777
-0.03778635 0.05030891 0.03919001
-0.03411040 0.05048862 0.03853335
-0.03129727 0.05129755 0.03863995
0.02385790 0.04907570 0.03952360
0.02598381 0.04992918 0.03869516
0.02914390 0.05004750 0.03698618
-0.04827540 0.05364203 0.03606757
-0.04608964 0.05415318 0.03779214
-0.04186850 0.05355836 0.03943143
-0.03818527 0.05368535 0.03920348
-0.03398065 0.05398654 0.03784069
-0.02985627 0.05407535 0.03678168
-0.02677245 0.05372886 0.03826594
0.02687574 0.05233600 0.03935484
0.03016288 0.05353509 0.03814819
0.03246337 0.05447610 0.03680577
-0.04589562 0.05750164 0.03811476
-0.04251072 0.05697428 0.03977745
-0.03749382 0.05706867 0.03968787
-0.03398705 0.05756176 0.03850866
-0.03016885 0.05790362 0.03706755
-0.02658315 0.05769351 0.03825512
0.03101308 0.05676875 0.03942170
0.03361087 0.05802508 0.03792270
-0.04844350 0.06284710 0.03605790
-0.04621727 0.06153549 0.03813113
-0.04364690 0.06015880 0.03989320
-0.03337355 0.06167231 0.03916858
-0.02999838 0.06172136 0.03777197
-0.02674370 0.06185293 0.03862399
0.03444616 0.06183829 0.03863027
0.03630297 0.06190780 0.03658470
-0.05750920 0.06756368 0.03646360
-0.05390517 0.06706255 0.03678333
-0.04941070 0.06623127 0.03723167
-0.04626571 0.06566537 0.03895747
-0.03284257 0.06517303 0.03962743
-0.02999657 0.06602228 0.03869912
-0.02703218 0.06560671 0.03919735
0.03480609 0.06600760 0.03884001
0.03696895 0.06597368 0.03668260
-0.06566194 0.07098515 0.03653562
-0.06151054 0.07035998 0.03759010
-0.05778539 0.07015950 0.03856349
-0.05400604 0.06997461 0.03867929
-0.05033054 0.06983591 0.03883987
-0.04710850 0.06834560 0.03976760
-0.02983166 0.07000523 0.03961243
-0.02755540 0.06890020 0.03985980
0.03470312 0.07002936 0.03872065
0.03687282 0.06999692 0.03657025
-0.06978178 0.07428152 0.03711311
-0.06583302 0.07364166 0.03851452
-0.06270692 0.07274445 0.03924062
0.03464663 0.07393085 0.03933056
0.03672844 0.07406824 0.03727837
-0.07318787 0.07803527 0.03714775
-0.07011651 0.07757104 0.03884290
-0.06725290 0.07607250 0.03937610
0.03514458 0.07816103 0.03942620
0.03680127 0.07811680 0.03742580
-0.07669024 0.08244636 0.03673096
-0.07393928 0.08181689 0.03844542
-0.07119520 0.08055770 0.03977620
0.03531691 0.08234648 0.03904289
0.03688132 0.08193962 0.03705766
-0.07761241 0.08624482 0.03729693
-0.07487199 0.08587921 0.03921481
0.03519814 0.08595590 0.03938320
0.03669626 0.08617277 0.03732523
-0.07743949 0.08996362 0.03768627
-0.07539227 0.09011281 0.03943307
0.03532067 0.09070120 0.03918337
0.03679862 0.09003976 0.03729219
-0.07712157 0.09397686 0.03732798
-0.07500012 0.09434979 0.03932169
0.03475228 0.09444357 0.03839820
0.03663173 0.09330469 0.03672157
-0.07691252 0.09768281 0.03672343
-0.07447727 0.09839372 0.03850734
-0.07189160 0.09953380 0.03988510
0.03133877 0.09884880 0.03933875
0.03364905 0.09786042 0.03761450
-0.07664150 0.10081400 0.03612380
-0.07408383 0.10189380 0.03747677
-0.07050167 0.10193562 0.03934814
0.02710817 0.10342967 0.03935704
0.03019331 0.10211284 0.03802143
0.03274183 0.10124000 0.03638664
-0.07654650 0.10786500 0.03614290
-0.07396359 0.10568714 0.03704322
-0.07001460 0.10551485 0.03799080
-0.06619956 0.10587589 0.03917732
-0.06199220 0.10700250 0.03940493
-0.05799770 0.10704550 0.03976187
-0.05399523 0.10706224 0.03985005
-0.04999873 0.10657600 0.03945502
-0.04749890 0.10705900 0.03995890
-0.04106182 0.10622200 0.03942562
-0.03799456 0.10560182 0.03885230
-0.03438526 0.10614600 0.03916804
-0.03000328 0.10705550 0.03971918
0.02291807 0.10625499 0.03965730
0.02588817 0.10600916 0.03866969
0.02903007 0.10610833 0.03687482
-0.08826020 0.11193400 0.03738370
-0.08621260 0.11111490 0.03814386
-0.08223292 0.11000583 0.03802336
-0.07831177 0.10893750 0.03810761
-0.07402140 0.10879301 0.03863465
-0.06981257 0.10931747 0.03816487
-0.06614265 0.10963425 0.03802310
-0.06204490 0.10969916 0.03781904
-0.05799754 0.10976668 0.03780974
-0.05399786 0.10979349 0.03786659
-0.05000046 0.10979708 0.03794136
-0.04599732 0.10981942 0.03822787
-0.04197864 0.10982759 0.03777034
-0.03803629 0.10963900 0.03698453
-0.03400926 0.10976966 0.03723403
-0.03000504 0.10979617 0.03781880
-0.02621295 0.11012499 0.03858027
-0.02230910 0.11102080 0.03952644
0.01049790 0.11057034 0.03962178
0.01400078 0.11080301 0.03952890
0.01819693 0.11011620 0.03911704
0.02196938 0.10981742 0.03830792
